ply
format ascii 1.0
element vertex 754
property float x
property float y
property float z
property float nx
property float ny
property float nz
property uchar diffuse_red
property uchar diffuse_green
property uchar diffuse_blue
end_header
5.20578 -5.34264 20.0187 0.150918 0.0751014 -0.98569 82 78 80
5.17057 -5.33768 20.0059 0.22302 0.403752 -0.887269 74 69 71
5.20275 -5.37211 19.9972 -0.0484578 0.0936086 -0.994429 83 76 77
22.835 -9.81215 10.3637 -0.861194 -0.445849 0.244055 59 56 57
22.7959 -9.80104 10.3586 -0.85067 -0.510931 0.123734 61 58 58
13.9781 -8.17889 9.6113 -0.939698 -0.237314 0.246272 50 48 50
13.9878 -8.18271 9.60953 -0.790592 -0.506226 -0.344528 54 52 54
8.43846 -7.34726 7.64807 -0.574102 0.44057 -0.690148 74 71 70
8.44247 -7.35333 7.66412 -0.573912 0.411996 -0.707731 101 98 98
8.44742 -7.36293 7.62797 -0.647349 0.684133 -0.336009 52 50 49
8.16009 -7.33625 7.21766 -0.830491 0.491438 -0.262247 92 84 82
8.15517 -7.34419 7.19708 -0.753985 0.644972 -0.124567 85 77 74
-1.29983 -4.30588 18.1858 -0.14066 -0.0872977 -0.986202 57 49 49
-1.29903 -4.29399 18.1522 0.380811 -0.174 -0.908134 61 52 52
-1.27535 -4.30844 18.1982 -0.105331 0.110861 -0.988238 63 56 56
-1.23197 -4.30374 18.1789 -0.738609 -0.168566 -0.652719 81 74 75
-1.21784 -4.31555 18.1792 -0.739026 -0.168499 -0.652264 97 92 93
-1.19872 -4.32154 18.1455 -0.739121 -0.169162 -0.651985 123 119 120
-1.10773 -4.34083 18.1893 0.332226 0.429241 -0.839868 118 112 111
-1.10054 -4.33411 18.2075 0.0213673 0.11464 -0.993177 120 115 114
-0.913055 -4.35952 18.2903 0.545377 -0.0671233 -0.835499 100 93 92
-0.890011 -4.37321 18.2815 0.543834 -0.0594241 -0.837086 74 68 65
-0.860452 -4.37229 18.2706 0.539938 0.0300313 -0.841169 76 70 65
4.13053 -4.91947 21.8362 -0.669621 -0.581901 -0.461517 55 36 30
2.28522 -4.87202 19.1368 0.317437 -0.337332 -0.886251 117 115 115
2.34304 -4.8726 19.1408 0.206284 -0.20139 -0.957543 35 31 32
4.25921 -5.13605 19.9853 0.262305 -0.108504 -0.958866 39 35 39
4.29165 -5.13886 20.0201 0.318681 0.0321491 -0.947317 41 38 41
4.24814 -5.16496 19.9258 0.250208 -0.0158543 -0.968062 63 60 62
4.19277 -5.14962 19.8399 0.145794 0.481309 -0.864341 65 61 63
4.36729 -5.16569 19.9713 0.305885 -0.0437207 -0.951064 67 61 63
4.92189 -5.27662 19.9316 0.103773 -0.510287 -0.85372 74 67 64
4.96563 -5.28608 19.949 0.0253276 -0.130769 -0.991089 52 45 43
5.04637 -5.30653 19.959 -0.147977 0.439531 -0.885954 13 10 11
5.07905 -5.32384 19.9306 0.00921007 0.228146 -0.973583 56 52 53
5.24539 -5.34281 20.0289 0.204454 -0.034289 -0.978275 84 78 81
5.26851 -5.34092 20.0171 0.271042 -0.0158322 -0.962437 83 78 79
5.31156 -5.34139 20.0325 0.273876 0.0356193 -0.961105 80 76 77
22.7508 -9.72762 10.3585 -0.849007 -0.511462 0.132639 68 65 66
13.9531 -8.12348 9.70621 -0.968475 -0.0424901 0.245462 8 7 8
13.9823 -8.14801 9.6588 -0.939866 -0.242274 0.24074 6 5 6
13.9605 -8.14301 9.55942 -0.82661 -0.448735 -0.339636 66 63 64
22.5047 -9.73173 9.98931 -0.754728 -0.604399 -0.255121 67 63 63
8.46362 -7.33175 7.66388 -0.55715 0.503373 -0.660454 118 115 114
8.47796 -7.31959 7.64293 -0.743422 0.663625 -0.0832195 75 73 72
8.46567 -7.32691 7.64744 -0.775465 0.556151 -0.298916 79 77 76
8.46484 -7.33409 7.61217 -0.489522 0.838455 0.239503 44 42 41
8.1655 -7.32492 7.19663 -0.559159 0.348729 -0.75215 81 72 70
-1.26758 -4.29148 18.197 -0.61673 -0.402685 -0.676379 62 52 53
-1.2482 -4.29536 18.1797 -0.677644 -0.279398 -0.680247 64 57 57
-1.09572 -4.31575 18.185 0.461728 0.332813 -0.822218 122 117 118
-0.9359 -4.34548 18.2989 0.547082 -0.075031 -0.83371 92 86 84
-0.961783 -4.34012 18.2472 0.454239 -0.0472727 -0.889625 94 87 86
-0.905493 -4.34856 18.2754 0.542067 -0.0750916 -0.836974 98 92 90
-0.876758 -4.34871 18.2712 -0.171102 -0.280215 -0.944565 98 92 88
4.10412 -4.88476 21.8126 -0.607609 -0.605263 -0.514265 58 41 35
4.14614 -4.88205 21.8048 0.0919102 -0.272416 -0.95778 61 38 32
2.26824 -4.84139 19.1163 0.328837 -0.262273 -0.907237 116 111 113
2.30437 -4.84143 19.1301 0.205823 -0.359025 -0.910351 57 55 55
4.12157 -5.10993 19.9582 0.249337 -0.0309084 -0.967924 26 20 25
4.15946 -5.11129 19.9772 0.316862 -0.0664182 -0.946143 27 21 25
4.20403 -5.10371 19.9642 0.311449 -0.0721558 -0.947519 28 22 25
4.37168 -5.13537 19.9911 0.246849 -0.0109129 -0.968993 60 56 58
4.34567 -5.13602 19.9915 0.302345 -0.0893725 -0.949 54 51 54
4.34643 -5.13461 19.9915 0.110735 -0.0300198 -0.993397 53 50 53
4.40651 -5.13532 19.9994 0.245772 -0.00709218 -0.969302 67 63 66
4.70686 -5.22283 19.9573 -0.67597 -0.583224 -0.450461 84 82 83
4.9891 -5.25577 19.9458 0.173834 0.477096 -0.861488 79 72 70
5.026 -5.2561 19.9549 0.182986 0.443815 -0.877237 69 62 60
5.02702 -5.25662 19.9586 0.099243 0.64713 -0.755893 69 63 61
4.99277 -5.26926 19.9424 0.191327 0.489845 -0.850556 58 51 49
5.06539 -5.28117 19.9706 -0.148908 0.438394 -0.886362 25 19 19
5.09344 -5.29546 19.9468 0.105844 0.593795 -0.797624 21 18 19
5.13671 -5.2997 19.9764 0.268028 0.186693 -0.945149 25 21 24
5.17361 -5.28752 19.9797 0.264724 -0.0726269 -0.961585 23 19 21
5.13525 -5.28171 19.9591 0.0390648 0.726705 -0.685838 15 11 13
5.26472 -5.30954 20.0319 0.21358 -0.0432945 -0.975966 70 66 67
5.28872 -5.3085 20.0273 0.233821 0.0975636 -0.967372 78 73 75
22.7075 -9.65454 10.3586 -0.846173 -0.520211 0.115638 66 63 64
13.982 -8.09615 9.75306 -0.926521 -0.106582 0.360831 58 56 58
22.6871 -9.69177 10.2837 -0.850749 -0.50838 0.133324 44 42 43
13.9698 -8.10308 9.66226 -0.60239 0.596321 -0.530592 6 5 5
13.9348 -8.10545 9.59466 -0.939337 -0.2432 0.241865 24 22 24
13.8723 -8.11054 9.50311 -0.904557 -0.0213215 0.425819 62 59 59
8.48143 -7.30181 7.66952 -0.525009 0.710311 -0.468853 120 118 118
8.45546 -7.30114 7.60823 -0.987038 0.154028 -0.0450638 55 53 52
-1.28437 -4.27006 18.1572 -0.481395 -0.548594 -0.683596 60 50 49
-1.25733 -4.2698 18.1594 -0.647799 -0.356214 -0.6734 49 41 40
-1.22086 -4.28825 18.1623 -0.736638 -0.176123 -0.652951 72 65 65
-1.19476 -4.30168 18.0567 -0.163816 -0.707632 -0.68733 121 116 118
-1.14263 -4.2927 18.1511 0.0666562 0.781564 -0.620254 119 115 116
4.08267 -4.84889 21.7901 -0.480298 -0.701553 -0.526438 58 41 36
2.25286 -4.81148 19.1008 0.340834 -0.256164 -0.904551 115 110 112
2.3254 -4.84088 19.12 0.169286 -0.248299 -0.953777 29 26 26
4.12944 -5.06897 19.9205 0.313322 -0.0545971 -0.948076 24 18 22
4.19833 -5.07077 19.969 0.29917 -0.0898725 -0.949958 26 20 23
4.24241 -5.10375 19.9776 0.251937 -0.0736746 -0.964935 30 26 29
4.25877 -5.10259 19.9646 0.25167 -0.108808 -0.961677 33 29 32
4.32294 -5.10203 19.9784 0.266623 -0.0460884 -0.962699 34 31 34
4.31594 -5.1037 20.001 0.252529 -0.0453464 -0.966526 34 30 34
4.30487 -5.10314 19.9869 0.300785 -0.0767905 -0.950595 34 31 34
4.34359 -5.10143 19.971 0.303271 -0.0768708 -0.949799 33 32 35
4.38884 -5.1036 19.9945 0.247335 0.00382643 -0.968923 44 41 43
4.45419 -5.13605 20.0219 0.294366 -0.0853626 -0.951873 67 63 66
4.46951 -5.13475 20.0092 0.299902 -0.047056 -0.952809 66 63 65
4.97638 -5.22872 19.9165 0.054417 0.713823 -0.698209 87 80 80
5.09844 -5.23732 20.0002 0.0347331 0.728494 -0.684171 79 72 71
5.13525 -5.25324 19.9892 0.0413642 0.725742 -0.686722 36 29 29
5.19416 -5.25347 19.9846 0.263326 -0.072352 -0.96199 16 10 11
5.23656 -5.27439 20.0152 0.263685 -0.0563071 -0.962964 19 14 16
5.25181 -5.27281 20.0017 0.261698 -0.051534 -0.963773 29 24 26
5.31944 -5.29779 19.9691 -0.502531 -0.383241 -0.774977 84 81 83
5.33966 -5.30077 19.9376 -0.895396 0.421007 -0.144976 82 79 78
22.6886 -9.58784 10.3603 -0.84993 -0.220491 0.478543 62 59 58
22.6365 -9.61805 10.2834 -0.848364 -0.510153 0.141497 58 56 56
13.9536 -8.06759 9.7065 -0.930385 -0.0721445 0.359414 25 24 25
13.9496 -8.06835 9.61102 -0.939441 -0.244892 0.239747 5 4 4
13.9151 -8.08028 9.54632 -0.938969 -0.244355 0.24213 62 59 60
8.48107 -7.28461 7.64326 -0.875449 0.215622 -0.432547 90 87 88
8.45103 -7.27446 7.58611 -0.910563 0.0391842 -0.411509 53 52 50
8.44627 -7.28787 7.58765 -0.885069 0.453035 0.106829 53 51 50
13.6729 -8.30783 6.97276 -0.924188 -0.356181 0.137886 58 52 51
-1.20693 -4.26877 18.1326 0.246815 -0.640424 -0.727283 66 59 60
-1.18082 -4.26815 18.1294 0.129085 -0.763109 -0.633247 67 61 62
-1.15736 -4.2697 18.1505 0.408971 0.229109 -0.883319 84 79 79
-1.10802 -4.27375 18.1955 0.365307 0.153944 -0.91807 109 105 106
-0.859311 -4.32075 18.2554 0.419219 -0.17504 -0.890852 95 91 87
3.87853 -4.79097 21.7493 -0.538487 -0.624166 -0.566081 38 22 18
4.12719 -4.84596 21.7844 0.178949 -0.441136 -0.879418 65 40 34
4.22568 -4.87114 21.6735 0.14435 -0.631941 -0.761455 92 72 68
2.30892 -4.81195 19.1033 0.187252 -0.448826 -0.87378 32 29 28
4.20328 -5.07056 19.9459 0.270124 -0.054016 -0.961309 24 18 22
4.22163 -5.0696 19.9363 0.307801 -0.0882122 -0.947353 26 20 24
4.30315 -5.06878 19.967 0.304699 -0.0727903 -0.949663 27 23 27
4.31469 -5.06741 19.9499 0.289976 -0.0976347 -0.952041 27 23 27
4.45117 -5.09856 19.9494 -0.770468 0.0162895 -0.63727 63 61 64
5.02613 -5.19729 20.0104 0.0596447 0.707489 -0.704202 75 71 72
4.98625 -5.20739 19.9803 0.0578851 0.710138 -0.701679 77 72 73
5.07105 -5.214 19.9548 -0.518852 0.125431 -0.845612 84 78 77
5.17053 -5.23999 20.0046 0.0420223 0.723186 -0.689374 53 46 45
5.17931 -5.2232 19.9909 -0.0350021 0.596068 -0.802171 66 59 57
5.25188 -5.23944 20.0125 0.25507 -0.0960186 -0.962143 22 16 16
5.27103 -5.23816 20.0025 0.246957 -0.0588918 -0.967235 17 10 12
5.34685 -5.26861 19.9735 -0.0905937 -0.15765 -0.983331 75 72 74
5.34058 -5.26388 19.8887 -0.46233 0.206414 -0.862348 83 81 80
5.38571 -5.27417 19.9255 -0.642234 -0.62217 -0.447706 80 76 75
22.5861 -9.54408 10.283 -0.846591 -0.514838 0.135001 64 61 61
13.9519 -8.02296 9.70808 -0.869319 -0.475606 -0.134473 48 47 48
22.5083 -9.55281 10.2349 -0.862733 -0.421874 0.27877 53 51 51
13.9397 -8.03535 9.65802 -0.842079 -0.48485 -0.236271 10 9 10
13.931 -8.04382 9.56322 -0.939517 -0.244873 0.23947 33 30 31
13.9085 -8.03009 9.55064 -0.929243 -0.13516 0.343859 38 34 34
13.8962 -8.03013 9.54099 -0.892679 0.0184542 0.450314 47 43 43
13.8751 -8.05296 9.50311 -0.894607 0.029408 0.445886 67 63 63
8.48244 -7.2613 7.61102 -0.878255 -0.33361 -0.342596 63 60 60
8.44199 -7.26135 7.60619 -0.660283 -0.653278 -0.370478 44 42 41
8.4625 -7.24993 7.58526 -0.662971 -0.707773 -0.243979 32 31 29
-1.25014 -4.25115 18.1412 -0.62454 -0.394945 -0.673771 56 45 45
-1.10913 -4.27278 18.1842 -0.357415 0.826023 -0.435823 109 105 107
-1.08039 -4.27105 18.1879 0.0240254 0.308236 -0.951007 119 115 117
-1.05294 -4.27036 18.1841 -0.129136 0.727344 -0.674014 123 119 122
-0.95215 -4.30634 18.1117 -0.244023 0.848987 -0.468694 107 101 100
-0.925216 -4.30793 18.1215 0.1304 -0.608151 -0.783038 96 91 89
3.85359 -4.75257 21.693 -0.765211 -0.439662 -0.470265 49 35 30
4.10834 -4.80779 21.7568 0.227801 -0.489149 -0.841926 66 41 35
2.2387 -4.78123 19.0853 0.34517 -0.261512 -0.901371 117 112 113
2.28804 -4.78235 19.0778 -0.0413136 -0.453082 -0.890511 32 29 28
4.26127 -5.03823 19.9621 0.254171 -0.0453096 -0.966097 24 17 21
4.27856 -5.03342 19.9201 0.296137 -0.0197705 -0.954941 23 16 21
4.37884 -5.06889 19.9924 0.305858 -0.0781265 -0.948866 27 24 27
4.41604 -5.06891 20.0047 0.306098 -0.0730597 -0.949192 30 28 31
4.42079 -5.06944 19.9281 -0.75834 0.0933369 -0.645143 42 41 44
4.50904 -5.07673 19.9485 -0.676286 0.664594 -0.31773 63 61 64
5.08444 -5.18427 19.955 0.248822 0.302504 -0.920097 79 73 74
5.17766 -5.18315 20.0318 0.257541 -0.0812903 -0.962842 81 75 74
5.22314 -5.20416 19.9936 0.237561 0.0267902 -0.971003 72 65 64
5.25156 -5.204 19.9948 0.10289 -0.174794 -0.979214 60 54 53
5.30912 -5.2284 19.9915 -0.25014 0.155863 -0.955582 12 7 10
5.35683 -5.23333 19.8868 0.039123 0.0124506 -0.999157 73 71 71
5.41798 -5.27006 19.9154 -0.841697 -0.424692 -0.333441 81 77 76
22.4705 -9.48257 10.2347 -0.870308 -0.428283 0.243183 64 61 61
13.9379 -7.99069 9.65953 -0.851185 -0.493424 -0.178931 17 16 17
22.2993 -9.46221 10.0892 -0.770481 -0.608294 -0.190623 21 19 19
22.319 -9.48885 10.0548 -0.826951 -0.561839 0.0221162 10 10 9
22.279 -9.45665 9.98913 -0.755716 -0.609601 -0.239333 12 11 10
13.9246 -7.98839 9.56428 -0.925395 -0.0667372 0.373081 10 8 7
13.805 -7.9891 9.43211 -0.947247 0.246037 0.205399 66 62 60
8.48464 -7.2376 7.58291 -0.828807 -0.113351 -0.547933 44 43 42
8.16125 -7.22958 7.21376 -0.576769 0.198893 -0.792325 73 66 62
-1.17108 -4.23197 18.2185 0.559865 -0.0299781 -0.828042 57 51 49
-1.15532 -4.23609 18.2444 0.228189 0.691015 -0.685878 57 50 48
-1.22151 -4.23417 18.0947 0.525206 -0.2844 -0.802044 57 48 47
-1.17216 -4.24669 18.1502 0.408952 0.229185 -0.883308 59 53 52
-1.11743 -4.25094 18.2062 0.0714934 0.715353 -0.695096 71 66 67
-1.09301 -4.24657 18.1774 -0.462895 0.75309 -0.467529 71 66 67
-1.09338 -4.2483 18.1905 -0.266131 0.851595 -0.451619 83 78 79
-1.06702 -4.2488 18.1945 -0.292206 0.846235 -0.445535 96 92 93
-1.03188 -4.26875 18.1928 -0.717751 -0.253282 -0.6486 121 118 120
-0.937452 -4.28214 18.0996 -0.00865409 -0.286249 -0.958116 119 114 113
-0.911111 -4.28443 18.114 -0.00746533 -0.684874 -0.728623 113 109 107
-0.872752 -4.29795 18.115 -0.396997 -0.627246 -0.670041 98 93 91
4.08649 -4.76982 21.724 0.211412 -0.340099 -0.916318 67 43 36
2.22485 -4.75125 19.0712 0.345699 -0.262354 -0.900923 117 114 115
2.27043 -4.75594 19.0704 0.242052 -0.321926 -0.9153 37 34 33
4.36065 -5.03534 19.983 0.303947 -0.103175 -0.947086 26 21 26
4.37647 -5.03427 19.9712 0.305312 -0.087728 -0.948203 27 23 28
4.42831 -5.05041 19.9801 -0.695848 -0.0962407 -0.711712 28 25 29
4.50399 -5.04173 19.9485 -0.261746 0.878504 -0.399649 37 36 39
4.54007 -5.07866 19.9286 -0.0967042 0.824105 -0.558121 65 64 66
5.34115 -5.17964 20.0884 -0.452797 0.286236 -0.844419 86 81 78
5.3211 -5.20259 20.0271 -0.148366 0.85028 -0.504987 46 39 38
5.33807 -5.1839 20.0202 -0.14832 0.850049 -0.505388 60 55 53
5.31496 -5.20031 19.9194 -0.959712 0.221186 -0.173289 12 8 8
5.33551 -5.2254 19.907 -0.937374 0.121619 -0.326404 46 44 45
5.39619 -5.23347 19.8972 0.239225 -0.120466 -0.963462 82 80 81
5.46225 -5.22452 19.8946 -0.503825 0.166919 -0.847525 86 82 82
22.4421 -9.40963 10.2389 -0.858705 -0.442181 0.25904 66 60 61
13.9113 -7.94007 9.6597 -0.940812 -0.252893 0.225649 42 39 41
13.9068 -7.98027 9.54097 -0.886577 0.0341564 0.461319 24 20 20
13.8478 -7.97982 9.482 -0.878573 0.187387 0.439313 71 67 66
13.8464 -7.9584 9.44922 -0.943769 -0.00279996 0.330593 71 66 65
13.8074 -7.96821 9.39471 -0.504404 0.863311 0.0164661 62 57 56
8.48886 -7.21209 7.60902 -0.640261 -0.48817 -0.59309 63 61 61
8.15792 -7.20537 7.19472 -0.617605 0.171295 -0.767608 72 66 62
8.16702 -7.21511 7.17924 -0.926038 0.352415 -0.135117 77 71 68
8.12678 -7.19871 7.13495 -0.310802 0.809786 0.497643 85 77 75
-1.06179 -4.24759 18.178 -0.309105 0.61822 -0.722674 84 80 81
-1.0206 -4.25223 18.1751 -0.106346 0.0546694 -0.992825 122 118 120
-0.995248 -4.2528 18.1761 -0.671261 -0.347086 -0.654935 122 119 121
3.83567 -4.71397 21.6201 -0.469514 -0.706911 -0.528993 60 46 41
4.04757 -4.75014 21.6998 0.228731 -0.354582 -0.906617 56 36 30
4.06817 -4.73372 21.7032 0.202217 -0.441374 -0.874241 69 46 39
2.211 -4.72126 19.0566 0.340954 -0.27819 -0.897976 109 105 105
2.2607 -4.72726 19.0626 0.238325 -0.318937 -0.917323 37 34 33
4.25707 -4.77166 21.6347 -0.591984 -0.575539 -0.564189 55 35 13
4.39815 -5.01537 19.9819 0.305248 -0.0758354 -0.949249 26 20 25
4.44127 -5.01572 20 0.269522 -0.0271783 -0.962611 26 21 25
4.4984 -5.01666 19.9776 0.110965 0.656175 -0.746405 26 25 28
4.54194 -5.02138 19.9597 -0.106658 0.831468 -0.545239 31 29 32
4.48784 -5.0382 19.9165 -0.313205 0.863035 -0.396324 38 36 40
4.53467 -5.04941 19.9291 -0.279519 0.793041 -0.541253 58 57 59
4.56112 -5.04969 19.8882 -0.135725 0.84449 -0.518089 65 64 66
5.04305 -5.14054 19.8956 0.0847166 0.669803 -0.73769 75 70 73
5.18955 -5.14403 20.0099 -0.231294 -0.180481 -0.955997 77 72 73
5.20742 -5.15266 19.8998 -0.376123 0.881385 -0.285818 88 81 80
5.34704 -5.18883 19.9056 -0.841949 0.495034 -0.214624 15 12 11
5.38788 -5.199 19.9114 -0.765901 -0.518648 -0.38 33 29 31
5.37299 -5.19679 19.8769 -0.172989 0.615043 -0.769284 39 35 37
5.41258 -5.20234 19.9054 0.223801 -0.130537 -0.965854 51 48 50
5.41623 -5.19968 19.9003 0.231056 -0.0720243 -0.970271 51 48 50
5.47428 -5.1964 19.8715 -0.702519 -0.373372 -0.605855 83 80 80
5.53759 -5.22687 19.885 -0.775383 -0.513492 -0.36757 82 75 75
22.3416 -9.34275 10.242 -0.882829 -0.468439 0.0343328 47 43 43
22.3466 -9.34679 10.2447 -0.894323 -0.447393 -0.00504655 47 43 43
13.9346 -7.9178 9.68153 -0.921043 -0.0893452 0.379074 61 60 60
22.3064 -9.37496 10.1676 -0.834153 -0.547322 0.0680192 64 61 60
13.8608 -7.9316 9.48335 -0.900019 -0.0101987 0.435731 58 55 54
13.8771 -7.9448 9.50354 -0.865728 0.0936334 0.491679 46 43 42
13.8642 -7.91833 9.45212 -0.961854 -0.129193 0.241136 67 63 62
13.8177 -7.92471 9.40048 -0.806528 0.575973 0.133293 60 55 55
8.49059 -7.18773 7.58242 -0.659585 -0.0174718 -0.751427 42 42 41
8.02529 -7.13876 7.30718 -0.579046 0.626175 -0.522121 58 53 51
8.15193 -7.17912 7.19718 -0.554926 0.385167 -0.737363 71 66 61
-1.0593 -4.21903 18.1803 -0.38591 0.726238 -0.568904 63 56 57
-1.00737 -4.22956 18.1737 -0.723724 -0.238255 -0.647655 85 81 82
-0.947752 -4.25421 18.0634 0.101909 -0.238893 -0.965684 119 114 115
-0.923443 -4.25877 18.0928 0.110076 -0.268627 -0.956934 119 115 115
-0.911347 -4.25384 18.0868 -0.213842 -0.709855 -0.671102 120 116 115
-0.875799 -4.27087 18.1102 -0.150473 -0.4524 -0.879029 114 110 108
3.93677 -4.70461 21.6554 0.364305 -0.174923 -0.914704 90 80 75
4.02207 -4.71654 21.682 -0.320473 -0.361472 -0.875577 52 34 27
2.19729 -4.6914 19.0421 0.341389 -0.280607 -0.897058 112 111 110
4.1655 -4.74703 21.6091 0.338465 -0.241765 -0.909391 99 77 69
2.24017 -4.69848 19.041 0.355415 -0.21648 -0.909295 38 36 35
4.55887 -4.99661 19.9423 -0.593808 0.700344 -0.39612 30 28 32
4.56991 -5.0227 19.9236 -0.50746 0.735784 -0.448449 55 52 55
4.56932 -5.00971 19.8532 -0.378083 0.848843 -0.369484 51 48 52
4.57468 -5.03796 19.8343 0.154656 0.544633 -0.824292 65 63 65
4.61671 -5.0245 19.8628 -0.107668 0.83042 -0.546635 70 67 69
5.37395 -5.14608 19.9199 -0.569057 -0.0372038 -0.821456 48 44 42
5.40744 -5.17423 19.9223 -0.742549 -0.539043 -0.397559 16 12 13
5.43583 -5.17019 19.903 0.0247661 -0.0971742 -0.994959 18 15 15
5.43323 -5.17219 19.9053 0.0306265 -0.200937 -0.979125 18 15 15
5.46873 -5.1695 19.8964 -0.0898877 -0.105478 -0.990351 42 38 39
5.47101 -5.17158 19.9029 0.0163926 -0.304321 -0.952428 42 39 39
5.55349 -5.20019 19.8777 -0.77179 -0.516996 -0.370211 85 81 80
22.4371 -9.31412 10.3471 -0.624968 0.4939 0.604548 50 47 47
22.348 -9.31683 10.3102 -0.611863 -0.344435 0.712031 39 36 36
22.2889 -9.30874 10.1693 -0.847857 -0.509157 0.147982 65 62 61
13.9226 -7.88981 9.66118 -0.904644 -0.00170175 0.426164 61 59 59
13.8573 -7.85659 9.63943 -0.587426 -0.392361 -0.707802 64 61 62
13.892 -7.87455 9.62679 -0.923037 -0.105847 0.369863 42 41 41
13.8907 -7.89557 9.58896 -0.995013 -0.0997429 -0.00113668 12 11 10
13.8656 -7.89846 9.53346 -0.985638 -0.160195 -0.0534259 8 6 5
22.0898 -9.28428 9.9359 -0.788674 -0.602434 -0.122741 10 9 8
13.8996 -7.89788 9.51509 -0.938934 -0.192503 0.28521 19 16 15
8.48288 -7.17079 7.60829 -0.582888 0.288959 -0.759437 87 84 85
8.49986 -7.17058 7.60849 -0.753627 0.0506965 -0.655344 67 65 66
8.45922 -7.17283 7.57134 -0.577549 -0.575294 0.579202 38 37 35
8.15735 -7.15422 7.1478 -0.964238 0.172456 -0.201256 80 72 69
-1.01538 -4.20527 18.1737 -0.722237 -0.247293 -0.645925 59 53 54
-0.983684 -4.22622 18.0939 -0.598838 0.055696 -0.798931 99 95 96
-0.967518 -4.24101 18.0829 -0.570891 -0.479823 -0.666223 122 118 120
-0.961955 -4.23027 18.0621 -0.54222 -0.510498 -0.667375 123 119 121
-0.893501 -4.24741 18.103 -0.521488 -0.110179 -0.846116 121 117 116
-0.863206 -4.24729 18.1058 -0.0523917 -0.270006 -0.961432 117 113 112
3.82204 -4.64192 21.771 -0.74549 -0.340889 -0.572747 29 16 9
3.90338 -4.6735 21.6336 -0.193003 -0.195543 -0.961516 94 85 80
3.96644 -4.68123 21.6709 0.368916 -0.0409437 -0.928561 74 62 56
3.94423 -4.67636 21.6544 0.352701 -0.123366 -0.927568 83 72 66
4.00479 -4.675 21.6481 0.042382 -0.557791 -0.828898 56 37 29
4.05115 -4.69713 21.6823 0.225222 -0.4965 -0.83831 68 47 38
2.18363 -4.66161 19.0275 0.342494 -0.283118 -0.895847 110 107 108
2.23466 -4.68923 19.0552 0.184264 -0.458045 -0.869622 52 51 50
4.5655 -4.96985 19.9764 -0.0920786 0.820097 -0.564768 24 21 23
4.57861 -4.99564 19.9587 -0.246062 0.797989 -0.550152 31 29 33
4.59989 -4.98397 19.8998 -0.438488 0.847462 -0.299225 33 30 34
4.61606 -4.9993 19.8978 -0.104264 0.828331 -0.550452 47 44 47
4.66553 -5.01531 19.9139 -0.277398 0.879443 -0.38682 66 63 67
4.6624 -5.01332 19.9035 0.206581 0.478296 -0.853556 67 64 67
4.64588 -4.99927 19.8805 -0.257594 0.873879 -0.412287 61 58 62
4.68295 -5.0062 19.8697 -0.28784 0.752689 -0.592121 71 67 71
4.63859 -5.01939 19.8267 -0.135653 0.840976 -0.523792 71 68 70
4.69589 -5.01898 19.8452 -0.0497314 0.796396 -0.602727 67 63 66
5.3963 -5.11404 19.9938 -0.955511 0.248489 -0.158911 82 79 76
5.40781 -5.13301 19.9398 -0.91958 -0.0640839 -0.387642 61 59 56
5.42545 -5.1468 19.9282 -0.75683 -0.00139074 -0.653611 25 22 21
5.45433 -5.14165 19.9032 -0.831073 -0.438623 -0.341946 13 10 9
5.52926 -5.16479 19.852 0.028507 -0.425574 -0.904475 77 74 75
5.48237 -5.15456 19.8289 0.169379 -0.240636 -0.955722 54 51 52
5.56353 -5.16706 19.8493 0.113413 0.336443 -0.93485 85 82 83
5.61986 -5.17374 19.795 -0.81545 -0.469403 -0.338678 83 78 76
22.475 -9.23967 10.346 -0.619658 0.511519 0.595293 57 55 56
22.1904 -9.26702 10.0941 -0.847887 -0.506186 0.15768 53 50 49
13.8666 -7.84898 9.5879 -0.547983 -0.406169 -0.73126 20 18 18
13.8406 -7.8654 9.45133 -0.928784 -0.15709 0.335684 56 53 52
8.4773 -7.13556 7.59692 -0.493043 0.867582 -0.0648878 84 81 82
8.49201 -7.15191 7.60844 -0.839099 0.518054 -0.16593 87 85 86
8.46644 -7.1355 7.57184 -0.815766 0.331782 0.473758 58 56 56
8.46973 -7.14974 7.58404 -0.989839 0.0993313 0.101744 60 59 59
8.47884 -7.15304 7.55617 -0.584493 0.0217912 -0.811106 51 49 48
8.01111 -7.09871 7.30734 -0.814065 -0.256471 -0.521077 50 47 45
-0.990264 -4.20224 18.0955 -0.654669 -0.17238 -0.735999 75 71 72
-0.971836 -4.21063 18.0827 -0.616579 0.308683 -0.724255 85 83 84
-0.946871 -4.21841 18.0365 -0.58324 -0.130681 -0.801719 126 122 123
-0.932824 -4.23036 18.0536 -0.556072 -0.498617 -0.664954 124 120 122
2.11345 -4.56687 19.5634 0.125824 -0.643247 -0.75525 125 113 108
3.88731 -4.63901 21.6282 0.300369 -0.200393 -0.932535 91 83 79
3.84589 -4.63804 21.6086 -0.0179037 -0.490684 -0.871154 78 68 64
3.92673 -4.63861 21.6384 0.37167 -0.211091 -0.904047 79 71 64
3.98939 -4.63836 21.6301 0.267182 -0.471723 -0.840292 58 38 30
4.04034 -4.64058 21.6589 0.276483 -0.469031 -0.838789 81 57 48
4.17803 -4.6803 21.6188 -0.0135931 -0.461966 -0.886793 83 66 61
2.21651 -4.66077 19.0354 0.0348418 -0.47956 -0.876817 55 53 52
4.22095 -4.68007 21.6166 0.0814023 -0.490649 -0.867546 24 11 9
4.27279 -4.68388 21.647 0.181812 -0.502877 -0.84502 16 4 3
4.34075 -4.69474 21.6731 0.0958734 -0.690833 -0.71663 26 14 14
4.61133 -4.96609 19.9716 -0.0708863 0.806678 -0.586724 23 21 25
4.59909 -4.96592 19.9232 -0.130217 0.840165 -0.526466 25 23 27
4.65541 -4.98402 19.9169 -0.107333 0.824387 -0.555757 39 35 40
4.6991 -4.97147 19.9492 0.138226 0.491943 -0.859584 33 30 33
4.71573 -4.98555 19.8775 -0.285166 0.750353 -0.596365 59 56 59
4.71635 -4.99826 19.8172 0.110231 0.638848 -0.761395 69 65 68
5.38575 -5.09426 19.9238 -0.661224 -0.615936 -0.428259 84 81 78
5.41147 -5.11604 19.9142 -0.810867 -0.0230196 -0.584777 70 67 64
5.46156 -5.11861 19.8101 0.214759 -0.231431 -0.948851 14 9 10
5.50305 -5.11921 19.8212 0.1907 -0.239368 -0.952017 16 12 14
5.53869 -5.13304 19.826 -0.372914 0.4593 -0.806213 49 45 48
5.59046 -5.13552 19.7759 -0.87151 0.0229326 -0.489841 86 83 84
5.56709 -5.14392 19.7891 -0.815192 -0.469893 -0.338619 84 81 83
13.8756 -7.79283 9.59099 -0.556343 -0.431843 -0.709926 41 39 39
22.0214 -9.15048 10.0183 -0.845963 -0.509574 0.157101 44 41 40
21.9423 -9.16641 9.85943 -0.797514 -0.597109 -0.0862135 11 9 7
13.8322 -7.80944 9.45139 -0.928364 -0.157901 0.336464 31 29 28
13.7782 -7.83311 9.40306 -0.928786 -0.158568 0.334982 63 61 59
8.51083 -7.11286 7.60104 -0.958899 0.279977 0.0461039 121 118 119
8.48617 -7.1216 7.55927 -0.993394 -0.0945117 0.0650784 51 49 49
-1.04083 -4.18144 18.0846 -0.548639 -0.500722 -0.669532 50 42 42
-1.02251 -4.18299 18.0854 -0.532385 -0.499417 -0.683483 52 44 45
-1.00604 -4.19013 18.0869 -0.664963 -0.356242 -0.656441 59 53 54
-0.964107 -4.20699 18.0325 -0.578696 -0.126096 -0.805736 97 94 95
-0.911214 -4.21997 18.0502 -0.272973 -0.692472 -0.667809 122 117 119
2.17345 -4.54935 19.587 -0.0920748 -0.704642 -0.703563 87 76 71
3.80998 -4.5802 21.6471 -0.916928 -0.185058 -0.353548 53 43 38
3.90965 -4.60104 21.6223 0.355637 -0.282145 -0.89102 79 70 65
3.94944 -4.6013 21.6191 -0.520025 -0.405824 -0.751586 55 37 31
4.12763 -4.6405 21.5776 0.347118 -0.24927 -0.904087 107 88 81
4.68672 -4.94545 19.9639 0.130786 0.614472 -0.778023 25 22 25
4.71661 -4.94523 19.9734 0.0960314 0.63535 -0.76623 26 22 26
4.71798 -4.96078 19.9036 -0.1472 0.43609 -0.887782 52 49 52
4.73323 -4.96925 19.7264 -0.761014 0.62198 -0.184389 72 69 72
4.73323 -4.96925 19.7264 -0.761014 0.62198 -0.184389 68 64 68
5.40821 -5.07681 19.9079 -0.615405 -0.647041 -0.450127 84 81 79
5.43791 -5.06683 19.87 -0.597577 0.720147 -0.352548 83 79 78
5.43274 -5.0938 19.8374 -0.53926 -0.102293 -0.835903 49 46 44
5.46227 -5.08895 19.8225 0.248548 -0.0574608 -0.966914 41 36 35
5.53661 -5.10341 19.8385 -0.287997 0.518133 -0.805354 15 11 12
5.49891 -5.0885 19.8279 0.203525 -0.0504335 -0.97777 28 23 22
5.58456 -5.09724 19.8201 0.0586598 0.668399 -0.741487 22 18 19
22.5965 -9.1639 10.3472 -0.957339 0.157205 0.242462 64 60 63
22.63 -9.1747 10.2783 -0.574753 0.536246 0.618142 48 45 46
13.854 -7.76931 9.58807 -0.933761 -0.189126 0.303844 59 55 56
13.8349 -7.77713 9.53707 -0.792078 -0.528229 -0.30592 15 13 13
21.817 -9.08461 9.8262 -0.822672 -0.568122 0.0211784 10 9 8
13.8024 -7.78272 9.40458 -0.915393 -0.0818828 0.394145 59 56 56
13.8069 -7.78352 9.40475 -0.927425 -0.124274 0.35276 59 57 56
21.7692 -9.09345 9.73057 -0.831134 -0.552143 0.0659924 58 56 54
-1.01823 -4.16743 18.087 -0.660176 -0.358503 -0.660032 53 45 45
-0.989382 -4.17569 18.0429 -0.550392 -0.191639 -0.812615 54 50 50
-0.968803 -4.18217 18.0306 -0.55813 -0.184155 -0.80906 69 66 66
-0.95187 -4.19388 18.0368 -0.587721 -0.118451 -0.800346 87 84 85
2.11422 -4.53226 19.5386 -0.0449167 -0.674998 -0.736451 135 123 117
3.77706 -4.53382 21.6904 -0.940878 -0.109099 -0.320697 56 43 37
3.79594 -4.55717 21.6797 -0.940151 -0.0740293 -0.33262 48 36 32
3.80206 -4.55502 21.6836 -0.882039 -0.286973 -0.373703 64 49 42
2.31854 -4.5504 19.6159 -0.0458925 -0.408319 -0.911685 112 92 81
3.78886 -4.55384 21.6498 -0.944575 -0.0291827 -0.326996 56 45 40
3.9314 -4.57168 21.624 -0.116232 -0.383364 -0.916254 63 49 44
3.99272 -4.60176 21.6219 0.00994875 -0.51754 -0.855601 64 42 34
4.18615 -4.64073 21.5993 -0.0171176 -0.604688 -0.796279 64 45 30
4.22894 -4.6425 21.6023 0.259328 -0.183993 -0.948101 16 5 3
4.27123 -4.63197 21.5839 -0.102342 -0.706254 -0.700522 24 13 11
4.31698 -4.65027 21.6 0.0964105 -0.690912 -0.716481 28 17 16
4.40756 -4.65207 21.5816 0.371896 0.00747849 -0.928244 47 35 36
4.72963 -4.95015 19.8148 -0.197179 0.859505 -0.471563 60 57 61
5.54082 -5.06466 19.8249 0.0764357 -0.523 -0.848899 43 38 36
5.6124 -5.09676 19.8018 -0.540092 0.398372 -0.74135 43 38 41
5.62274 -5.08697 19.736 -0.630744 0.432897 -0.64402 68 64 67
5.72249 -5.11506 19.7464 0.242031 0.00705471 -0.970243 83 79 79
5.72249 -5.11506 19.7464 0.242031 0.00705471 -0.970243 83 79 79
5.72249 -5.11506 19.7464 0.242031 0.00705471 -0.970243 83 79 79
5.76053 -5.12107 19.7565 0.238885 -0.0348338 -0.970423 85 80 77
5.62374 -5.12772 19.4527 -0.574016 0.793073 -0.203815 56 45 37
13.8601 -7.72567 9.58963 -0.893807 -0.446682 -0.0398135 75 71 71
13.8483 -7.72336 9.53937 -0.548582 -0.445459 -0.707548 26 24 24
13.8486 -7.73582 9.53942 -0.802879 -0.526805 -0.279036 32 30 30
21.7865 -9.051 9.75278 -0.831352 -0.551584 0.0678931 40 39 37
8.50014 -7.06485 7.58723 -0.802015 0.590775 -0.0880746 100 97 97
8.52516 -7.06473 7.56656 -0.535499 0.839128 -0.0954258 76 74 73
8.81752 -7.15775 7.38021 -0.572786 0.812208 0.110609 41 39 40
-0.996813 -4.16927 18.0525 -0.550438 -0.503898 -0.665661 51 45 46
-0.978505 -4.16031 18.0442 -0.493867 -0.558274 -0.666653 54 48 51
-0.958389 -4.16733 18.0355 -0.552309 -0.200419 -0.809189 58 54 54
-0.911213 -4.18569 18.0146 0.306387 -0.470794 -0.827333 117 114 115
2.11584 -4.49997 19.5189 -0.152925 -0.586088 -0.795685 123 111 107
3.79417 -4.51567 21.679 -0.923697 -0.136403 -0.358019 91 76 69
3.78517 -4.51076 21.6472 -0.943023 -0.00435708 -0.332699 83 70 64
2.30485 -4.52231 19.573 -0.0459181 -0.42467 -0.904183 138 118 108
2.46113 -4.5525 19.6878 0.191415 -0.105325 -0.975842 115 98 87
3.96944 -4.56793 21.5975 -0.0361897 -0.397521 -0.916879 61 39 31
4.15637 -4.6085 21.5759 -0.0610669 -0.375456 -0.924826 78 58 46
4.20337 -4.60856 21.5825 0.190559 -0.190476 -0.963019 42 22 7
4.39802 -4.62514 21.619 0.138246 -0.596555 -0.790576 37 26 26
4.74831 -4.92029 19.7582 -0.488028 0.832733 -0.261505 57 53 57
4.75699 -4.9199 19.6835 -0.733364 0.65402 -0.185567 61 57 60
5.4119 -5.0423 19.7463 0.16451 -0.405584 -0.899132 83 79 77
5.45714 -5.04274 19.7569 0.168638 -0.403431 -0.899336 78 72 69
5.56633 -5.039 19.8368 -0.127308 -0.301129 -0.945047 72 66 64
5.68151 -5.08406 19.7358 0.021333 0.709541 -0.704341 84 82 84
5.64087 -5.10791 19.425 -0.890176 -0.0183509 -0.455247 58 48 41
22.735 -9.10473 10.2791 -0.989238 -0.0767701 0.124558 74 70 70
22.7331 -9.13289 10.2315 -0.991299 -0.0910591 0.0950455 44 40 42
13.8328 -7.68817 9.5722 -0.723289 -0.540605 -0.42965 76 73 73
13.8323 -7.68642 9.52563 -0.644794 -0.524723 -0.555794 40 39 39
13.7844 -7.68579 9.48393 -0.807114 -0.509546 -0.29821 13 11 12
13.8073 -7.72704 9.40502 -0.92987 -0.105607 0.352406 36 34 33
13.7811 -7.70036 9.35978 -0.855718 -0.479966 -0.193337 59 57 57
8.53197 -7.0467 7.54941 -0.617354 -0.213374 -0.757196 74 71 70
-0.919663 -4.16532 18.0509 0.309285 0.192682 -0.931245 80 76 78
-0.895025 -4.16501 18.039 -0.37994 -0.0667683 -0.922598 81 78 79
2.28929 -4.50198 19.5735 -0.0574953 -0.445375 -0.893496 123 101 92
3.75087 -4.49622 21.5846 -0.372241 -0.683549 -0.627852 53 37 30
2.28929 -4.50198 19.5735 -0.0574953 -0.445375 -0.893496 123 101 92
2.28929 -4.50198 19.5735 -0.0574953 -0.445375 -0.893496 123 101 92
3.81887 -4.51879 21.5386 -0.282007 -0.665829 -0.690755 104 94 90
3.82076 -4.51771 21.5373 -0.22581 -0.614549 -0.75587 103 93 89
3.87732 -4.51742 21.5554 0.346857 -0.314829 -0.8835 63 50 45
2.47546 -4.5151 19.6777 0.364478 -0.046002 -0.930075 59 48 46
2.44057 -4.51697 19.6237 -0.432214 -0.553928 -0.711587 101 75 59
3.94772 -4.53483 21.5788 0.00871193 -0.488987 -0.872248 57 35 28
4.12984 -4.57412 21.5501 0.179062 -0.315074 -0.932022 90 69 59
4.18298 -4.57081 21.5642 0.112488 -0.312472 -0.943243 44 24 12
4.22714 -4.57472 21.5837 0.0341049 0.755011 -0.654825 21 10 8
4.27395 -4.59179 21.5468 0.245081 -0.238391 -0.939737 59 35 19
4.29678 -4.59166 21.5347 0.348899 -0.200201 -0.915527 35 23 22
4.31628 -4.5915 21.5226 0.354307 -0.194101 -0.914763 39 29 28
4.35768 -4.5915 21.5386 0.353825 -0.19674 -0.914386 48 38 37
4.73151 -4.89861 19.6793 -0.592602 -0.00567228 -0.805475 47 44 48
5.47794 -5.00463 19.7335 -0.714307 -0.578323 -0.394091 87 83 80
5.69786 -5.03266 19.7731 -0.306714 -0.51334 -0.801504 16 12 12
5.70767 -5.05515 19.7645 0.233694 0.0771102 -0.969248 51 47 49
5.7456 -5.05516 19.774 0.242281 0.0334838 -0.969628 61 59 60
5.75308 -5.06641 19.6232 -0.7325 0.667058 -0.135932 84 81 79
5.65283 -5.08255 19.3751 -0.986428 -0.0463967 -0.157505 63 52 44
5.64249 -5.08148 19.367 -0.976207 0.191579 -0.101578 64 53 45
5.70329 -5.11469 19.223 0.177547 -0.27713 -0.944286 87 63 53
5.68101 -5.11819 19.2149 0.180997 -0.26391 -0.947413 89 67 58
5.72639 -5.11861 19.2306 0.19239 -0.193442 -0.962064 81 58 46
22.7187 -9.04901 10.2788 -0.847446 -0.367744 -0.382884 75 70 70
22.6117 -9.04595 10.1823 -0.989735 -0.137055 0.0405129 54 50 51
13.7991 -7.64945 9.48581 -0.773683 -0.442614 -0.453329 30 29 29
13.8031 -7.68792 9.40835 -0.908301 -0.418144 -0.0120287 17 16 16
8.53526 -7.03158 7.52287 -0.828322 0.120429 -0.547156 52 50 48
-1.00184 -4.14464 17.9591 0.394766 0.476943 -0.785293 55 49 49
-0.935447 -4.13396 18.0597 0.375648 -0.115187 -0.919576 55 48 49
-0.908313 -4.1429 18.0469 0.359738 0.074788 -0.930051 58 54 54
-0.883394 -4.14218 18.0326 0.355694 0.135177 -0.924775 67 63 64
-0.859478 -4.14364 18.0507 0.421383 0.355508 -0.834296 78 75 76
2.06793 -4.45316 19.4817 -0.0263633 -0.700091 -0.713566 134 121 117
2.11358 -4.46781 19.4933 -0.0313921 -0.618338 -0.785285 97 84 81
2.28047 -4.48698 19.5569 -0.0458791 -0.425605 -0.903745 129 107 99
3.77309 -4.48803 21.5242 -0.31774 -0.679416 -0.661389 85 74 71
3.82081 -4.48713 21.5086 -0.0023714 -0.638578 -0.769553 88 78 73
3.8168 -4.48793 21.5398 -0.944148 -0.0513277 -0.325499 92 84 82
2.41958 -4.48939 19.6141 -0.188161 -0.340983 -0.921046 110 86 74
3.81888 -4.48057 21.4966 -0.31049 -0.65477 -0.689109 82 70 66
3.92867 -4.4881 21.5389 0.15079 -0.598134 -0.787082 62 42 33
3.97164 -4.49538 21.5628 0.337396 -0.334424 -0.879957 89 67 55
4.11015 -4.53984 21.5329 0.181705 -0.320375 -0.929701 76 60 55
4.16485 -4.53772 21.5527 0.107647 -0.292215 -0.950275 21 10 7
4.28757 -4.55655 21.5324 0.352321 -0.208201 -0.912427 33 21 20
4.28301 -4.55413 21.525 0.352002 -0.208631 -0.912452 33 21 20
4.29651 -4.55402 21.5052 0.350468 -0.223659 -0.909477 44 33 32
4.72174 -4.8587 19.6707 -0.945151 -0.176461 -0.274865 29 24 29
4.73131 -4.87312 19.6333 -0.919378 -0.251814 -0.302213 40 36 41
4.73218 -4.87482 19.6308 -0.918856 -0.254821 -0.30128 41 38 42
4.71762 -4.87975 19.4783 0.19597 0.451354 -0.87056 72 68 72
5.52151 -4.99482 19.7577 -0.646834 -0.632223 -0.426498 87 82 81
5.48927 -4.97543 19.7249 -0.713663 -0.580114 -0.392622 80 76 76
5.55975 -4.99512 19.7567 -0.0635851 -0.331777 -0.941212 83 79 77
5.60666 -4.99806 19.767 -0.051669 -0.719235 -0.692843 73 68 66
5.68604 -5.00571 19.7862 -0.522889 -0.132349 -0.842064 35 30 27
5.64226 -4.9962 19.7506 0.0207697 -0.534212 -0.845095 55 49 47
5.7264 -5.02145 19.7711 -0.0834493 0.79631 -0.599105 11 9 8
5.77606 -5.02605 19.7713 -0.0908704 0.370962 -0.924192 35 34 33
5.7778 -5.04363 19.7185 -0.822585 0.224809 -0.522317 81 79 80
5.79922 -5.03107 19.6909 -0.80378 0.249979 -0.53986 85 83 84
5.79206 -5.03956 19.6358 -0.396515 0.847629 -0.352563 85 82 82
5.82115 -5.03961 19.6223 -0.976372 0.169741 -0.133737 84 80 79
5.68279 -5.06182 19.4472 -0.985149 0.0219993 -0.170287 75 67 63
5.6307 -5.05074 19.3789 -0.940106 0.329747 -0.0864136 76 68 63
5.60525 -5.05855 19.302 -0.96709 0.0640721 -0.246235 74 64 57
5.63604 -5.05082 19.2902 -0.82771 0.466661 -0.311646 67 57 50
5.68482 -5.08446 19.2033 0.213868 -0.0508366 -0.975539 87 65 54
5.68506 -5.08041 19.2098 0.177008 -0.272536 -0.945723 87 65 54
5.74696 -5.0846 19.2276 0.183144 -0.176782 -0.967061 70 47 32
22.6498 -8.98772 10.278 -0.835962 -0.433318 -0.336754 66 63 62
22.6284 -9.00663 10.2252 -0.846487 -0.404927 -0.345678 67 63 63
22.5466 -8.99795 10.1343 -0.615249 -0.447274 0.649165 42 37 38
13.8184 -7.60645 9.56527 -0.593221 0.801408 -0.0763828 76 74 74
13.7973 -7.64202 9.5251 -0.937813 -0.23122 0.25893 63 62 62
13.7944 -7.6248 9.52326 -0.957821 -0.1228 0.259804 66 64 65
13.7428 -7.60894 9.44506 -0.846556 -0.48931 -0.209569 13 11 12
13.7686 -7.65478 9.36038 -0.83956 -0.503887 -0.203069 45 44 44
8.55091 -7.00352 7.5753 -0.875233 0.253731 0.411811 135 132 131
8.5394 -7.01691 7.54934 -0.96765 0.20862 0.141888 96 92 91
-0.92271 -4.12168 18.0548 0.536688 -0.0380014 -0.842925 49 43 43
-0.899587 -4.12439 18.0807 0.531452 -0.0570403 -0.845166 51 45 45
-0.851521 -4.1302 18.0925 -0.756342 0.350234 -0.552525 63 60 59
-0.81898 -4.13422 18.0798 -0.306747 0.705954 -0.638385 82 79 80
2.03818 -4.43369 19.4742 -0.0223911 -0.768417 -0.639558 151 133 125
2.25685 -4.45162 19.5412 -0.0459769 -0.425606 -0.90374 119 97 89
2.39284 -4.4632 19.6001 -0.126068 -0.741053 -0.659505 126 106 97
2.42144 -4.4619 19.5839 -0.119673 -0.767668 -0.629575 101 69 54
4.09199 -4.50541 21.5169 0.193657 -0.326839 -0.925026 79 63 58
4.31649 -4.55374 21.4941 0.354307 -0.19412 -0.914759 53 43 43
4.72925 -4.84496 19.5613 -0.551639 0.0310573 -0.833505 36 33 37
5.53297 -4.96345 19.6886 -0.553553 -0.676226 -0.486104 84 79 78
5.65722 -4.97967 19.7391 -0.0743522 -0.726623 -0.683001 67 62 59
5.80585 -5.01115 19.6251 -0.399143 0.35759 -0.844283 84 83 84
5.83482 -5.01114 19.6113 -0.409915 0.871084 -0.270523 85 83 83
5.82927 -5.02536 19.5424 -0.225793 0.864026 -0.449974 86 81 76
5.71231 -5.03105 19.4003 -0.89914 0.430078 -0.0811193 79 72 67
5.70402 -5.05557 19.2188 -0.199 0.444055 -0.873621 72 52 40
5.66027 -5.05191 19.195 0.159688 0.26732 -0.950284 83 65 54
22.665 -8.94491 10.2156 -0.833082 -0.444975 -0.328591 66 62 63
13.8493 -7.58341 9.56526 -0.591818 0.802785 -0.0727148 75 73 72
13.7967 -7.58291 9.5241 -0.949224 -0.309974 0.0537549 78 76 77
13.7655 -7.60535 9.48537 -0.916161 -0.0829026 0.392143 39 37 38
13.7479 -7.5805 9.46331 -0.935744 -0.297704 0.189091 37 35 36
13.7552 -7.60865 9.36104 -0.85565 -0.491021 -0.163589 25 24 24
13.76 -7.58554 9.38398 -0.663361 -0.524773 -0.533446 25 23 23
8.54323 -6.98651 7.54952 -0.736106 0.466187 0.490731 102 98 97
8.52618 -6.99467 7.52146 -0.836545 0.534602 -0.119971 59 57 55
-0.871157 -4.09539 18.1345 -0.78611 0.225275 -0.575571 46 42 39
-0.859333 -4.11022 18.0967 -0.786441 0.226254 -0.574734 54 49 46
-0.843641 -4.10304 18.0915 -0.775009 0.284807 -0.564133 48 44 42
-0.781916 -4.13081 18.0174 -0.320556 0.775752 -0.543556 107 103 105
2.03429 -4.40101 19.4424 -0.0383812 -0.504327 -0.86266 138 126 122
2.07097 -4.41893 19.4548 -0.0299571 -0.653508 -0.756327 108 96 92
2.25567 -4.42131 19.5074 -0.0577399 -0.0666701 -0.996103 143 122 115
2.35282 -4.44169 19.5907 -0.395245 -0.715473 -0.57609 137 119 115
3.90743 -4.4545 21.5171 0.0529093 -0.434623 -0.899057 82 62 53
3.95407 -4.45732 21.5383 0.330262 -0.343138 -0.879308 93 69 57
3.95487 -4.43397 21.5402 0.256805 -0.444148 -0.858361 99 72 60
4.06965 -4.4678 21.4885 0.320611 -0.353878 -0.878623 76 63 57
4.11858 -4.48665 21.5134 -0.303585 -0.439439 -0.845417 27 15 11
4.28777 -4.51888 21.503 0.352606 -0.217361 -0.910178 42 30 29
4.2832 -4.51649 21.4956 0.351633 -0.212826 -0.911625 42 30 29
4.69286 -4.81163 19.6089 -0.967747 0.133048 -0.213927 24 19 24
4.7136 -4.82979 19.5934 -0.882251 -0.135044 -0.450995 29 25 30
4.72438 -4.80927 19.5634 -0.900757 0.393077 -0.184735 28 24 28
4.79188 -4.84652 19.5472 -0.352905 0.87477 -0.332018 61 57 62
5.58743 -4.94722 19.6726 -0.0719287 -0.713802 -0.696644 87 83 80
5.58785 -4.94744 19.6738 -0.074037 -0.722293 -0.687613 87 83 80
5.58643 -4.94672 19.6699 -0.0719408 -0.714951 -0.695463 87 83 81
5.58757 -4.94637 19.6716 -0.0640678 -0.7304 -0.680008 87 83 81
5.77493 -4.97131 19.7708 0.133404 -0.462516 -0.876517 34 30 29
5.78663 -4.98695 19.7102 -0.513507 -0.705521 -0.488416 12 11 10
5.83486 -4.99417 19.6661 -0.440997 0.844622 -0.303538 67 67 68
5.82495 -4.9854 19.6282 -0.406098 0.872336 -0.272239 68 67 68
5.64401 -5.01092 19.2115 -0.0583199 0.401914 -0.913818 86 75 68
5.83432 -5.01789 19.3042 -0.148066 0.82925 -0.538907 75 58 41
22.6533 -8.87991 10.217 -0.84967 -0.426869 0.309586 68 63 64
22.588 -8.888 10.1473 -0.731058 -0.63315 -0.254315 49 45 45
13.8051 -7.56436 9.52862 -0.973688 -0.210763 0.0866625 79 77 78
13.7625 -7.55821 9.48543 -0.915487 -0.085671 0.39312 67 64 65
13.7281 -7.55936 9.42253 -0.942429 -0.256206 0.214909 27 25 25
13.7416 -7.54334 9.38404 -0.750796 -0.351955 -0.558958 27 25 26
13.7403 -7.57908 9.3127 -0.953153 -0.28476 -0.102037 54 53 54
8.56238 -6.95548 7.54955 -0.956491 0.190889 0.22065 109 105 105
8.54072 -6.96284 7.52182 -0.857884 0.41364 0.304858 69 64 64
8.3219 -6.92939 7.42044 -0.584797 0.779249 -0.225354 54 49 50
-0.8271 -4.0969 18.0862 -0.774025 0.288217 -0.563752 44 41 40
-0.750173 -4.13053 17.9768 0.0141576 -0.680143 -0.732943 122 118 121
-0.719431 -4.12951 17.9399 -0.275591 0.425427 -0.86201 123 119 122
2.00417 -4.38389 19.4355 -0.0402614 -0.488144 -0.871834 149 131 123
2.03106 -4.36969 19.4214 -0.039636 -0.448881 -0.892712 119 109 104
3.6863 -4.39163 21.4673 -0.342042 -0.68404 -0.64428 55 42 35
3.73072 -4.3843 21.4438 -0.32534 -0.66801 -0.669266 102 91 88
3.77292 -4.41283 21.4478 -0.312246 -0.657773 -0.685447 97 87 82
3.84588 -4.41208 21.4645 0.222316 -0.571179 -0.790146 55 34 27
3.90816 -4.41393 21.4957 0.199442 -0.502661 -0.841162 82 58 47
4.00131 -4.42592 21.4255 0.281929 -0.39143 -0.875956 109 91 82
4.05302 -4.43089 21.4695 0.313368 -0.343306 -0.885405 73 61 53
4.13538 -4.45469 21.4914 -0.195111 -0.496305 -0.845939 21 10 7
4.75166 -4.79821 19.5629 -0.899598 0.395962 -0.184221 26 23 27
4.77874 -4.78691 19.561 -0.905429 0.38297 -0.183118 26 23 27
4.76686 -4.80482 19.4917 -0.585853 0.600913 -0.543765 32 29 33
4.79253 -4.80386 19.4608 -0.0896855 0.801312 -0.591487 48 45 50
4.85249 -4.82735 19.5083 -0.311254 0.836468 -0.451046 70 67 71
5.51135 -4.91786 19.6039 -0.699795 -0.594839 -0.395543 78 74 73
5.69345 -4.92484 19.6959 -0.695419 -0.565211 -0.443766 88 82 80
5.72564 -4.92198 19.6744 -0.145036 -0.399778 -0.905065 83 77 74
5.79492 -4.98569 19.3598 -0.147997 0.828713 -0.539751 87 80 74
5.87838 -4.99105 19.4641 -0.0581429 0.767801 -0.638045 86 80 75
5.68321 -4.99379 19.2266 -0.21882 0.618587 -0.754631 86 77 70
5.70888 -4.97703 19.2311 -0.132443 0.818178 -0.559502 88 80 73
5.74677 -4.98532 19.212 -0.136841 0.819867 -0.555961 80 67 55
5.70001 -4.99658 19.1817 0.029156 0.358436 -0.933099 72 62 52
5.90538 -5.00315 19.2849 0.103793 0.547132 -0.830586 83 61 43
22.5484 -8.82634 10.1251 -0.849083 -0.427257 0.31066 61 57 57
22.5411 -8.81917 10.1481 -0.832819 -0.533425 0.147888 63 58 59
22.4397 -8.81867 10.0614 -0.731054 -0.63316 -0.254299 35 32 32
13.8287 -7.51725 9.55186 -0.794734 0.312878 0.520101 73 69 69
13.8183 -7.52391 9.52977 -0.60538 0.79122 -0.0865262 77 74 74
13.7712 -7.51288 9.48606 -0.950866 -0.125111 0.283196 75 72 73
13.7152 -7.51397 9.4225 -0.933093 -0.270347 0.23717 34 32 32
13.7324 -7.53587 9.31291 -0.929114 -0.332438 0.161963 38 38 38
8.55843 -6.93895 7.5235 -0.988119 0.126682 0.0870195 88 84 83
8.51321 -6.9408 7.43751 -0.80163 0.586345 -0.116574 57 51 52
-0.749022 -4.10471 17.9951 -0.403668 0.692747 -0.597623 80 75 76
-0.717726 -4.10487 17.9574 -0.333853 0.775281 -0.536173 116 112 115
-0.697594 -4.11557 17.9732 -0.19067 0.606793 -0.771652 123 119 122
-0.658438 -4.11665 17.9448 -0.783082 0.282857 -0.553872 120 116 119
3.67228 -4.34144 21.4754 -0.331507 -0.7647 -0.552574 60 43 35
3.6875 -4.35512 21.4353 0.272461 -0.493214 -0.826139 71 57 52
3.79169 -4.3668 21.451 0.347252 -0.325702 -0.879395 76 63 59
3.78051 -4.38761 21.4155 -0.450761 -0.695115 -0.560026 67 53 48
3.84863 -4.372 21.4456 0.19828 -0.578171 -0.791457 56 36 28
3.89193 -4.37693 21.4715 0.279312 -0.473429 -0.835374 84 60 50
4.09658 -4.43171 21.4872 -0.199978 -0.595929 -0.777739 23 13 9
4.12995 -4.44201 21.2222 -0.374133 0.746658 -0.550024 75 64 61
4.80665 -4.77606 19.5629 -0.961185 0.193329 -0.196843 28 24 30
4.99779 -4.79139 19.6528 0.261974 -0.0418144 -0.964169 46 43 48
5.08407 -4.81654 19.6895 -0.145822 0.831755 -0.535648 71 68 73
5.63181 -4.90308 19.6642 -0.703075 -0.594957 -0.389502 82 77 77
5.70958 -4.89833 19.6984 -0.656149 -0.633035 -0.410772 86 80 81
5.88667 -4.91157 19.717 -0.564939 0.685199 -0.459723 44 39 39
6.02441 -4.96549 19.6463 -0.745445 0.653881 -0.129427 88 84 85
5.9834 -4.97031 19.5763 -0.00354086 0.71389 -0.700249 86 81 79
6.07179 -4.96182 19.623 -0.070099 0.772643 -0.630958 87 81 78
5.87542 -4.97826 19.3653 -0.210281 0.832035 -0.513322 86 76 66
5.9136 -4.96096 19.3853 -0.239483 0.777471 -0.581538 87 77 69
5.91352 -4.98533 19.3523 -0.247109 0.777403 -0.578431 83 68 53
5.8099 -4.98138 19.2856 -0.150379 0.82826 -0.539789 83 72 61
5.95139 -4.99458 19.3053 -0.825935 0.539337 -0.164157 80 60 43
6.0222 -5.0081 19.3576 -0.859 0.502411 -0.0984955 81 58 41
22.4806 -8.75202 10.1684 -0.836506 -0.519099 0.175481 72 69 70
22.399 -8.73945 10.1173 -0.695667 -0.708246 -0.120148 66 62 62
22.4038 -8.7834 10.0515 -0.847006 -0.453882 0.276716 47 43 44
22.4544 -8.76046 9.9865 -0.62543 -0.779202 0.0409959 40 37 39
13.8174 -7.49591 9.52819 -0.364282 0.931063 -0.0205264 74 70 70
13.7526 -7.46021 9.47893 -0.931309 -0.217549 0.292123 76 72 72
13.7559 -7.49094 9.44738 -0.929036 -0.189675 0.317673 54 50 50
13.7036 -7.46858 9.42258 -0.932513 -0.270727 0.239011 51 48 48
13.7147 -7.49622 9.3832 -0.757451 -0.457646 -0.465649 25 23 24
13.7148 -7.50258 9.34377 -0.710977 -0.540537 -0.449813 27 26 26
13.7459 -7.51152 9.35013 -0.931908 -0.27684 0.234323 27 26 27
8.56196 -6.90856 7.52352 -0.978559 0.192234 -0.0739465 110 105 105
8.53615 -6.91983 7.4987 -0.944532 0.0552435 0.323739 60 56 55
8.54201 -6.91716 7.45857 -0.348908 0.853509 0.387022 43 40 39
8.38288 -6.90495 7.44866 -0.589782 0.525205 -0.613447 42 37 38
8.5291 -6.92285 7.43763 -0.700548 0.685729 0.197507 52 48 48
8.51765 -6.90818 7.41792 -0.416478 0.792667 0.445225 63 58 59
-0.842638 -4.05572 18.1061 -0.4385 -0.613001 -0.657227 50 43 42
-0.824131 -4.07296 17.9949 -0.61099 -0.445569 -0.654339 49 44 44
-0.799421 -4.0765 18.0061 -0.448931 -0.162117 -0.878737 49 44 45
-0.770037 -4.07654 17.9942 -0.362498 -0.313811 -0.877564 58 52 53
-0.745315 -4.07766 17.9965 -0.204099 0.336263 -0.919386 61 55 56
-0.668444 -4.09527 17.9556 -0.215102 0.495868 -0.841336 100 96 99
1.98243 -4.32522 19.4011 -0.158272 -0.623555 -0.765591 141 125 120
2.01009 -4.343 19.4065 -0.0362602 -0.524486 -0.850647 127 117 110
3.69209 -4.32973 21.3991 0.000990331 -0.628419 -0.777875 93 80 76
3.73107 -4.34658 21.3963 -0.483447 -0.69204 -0.53606 105 94 90
4.03524 -4.39557 21.4488 0.221863 -0.411764 -0.883871 76 63 56
4.09771 -4.39527 21.4638 -0.261355 -0.514276 -0.816831 17 6 3
4.09996 -4.42276 21.2881 -0.889999 0.371738 -0.264033 40 33 29
4.12141 -4.41378 21.245 -0.557051 0.5798 -0.594581 68 58 55
4.94558 -4.74116 19.714 0.27195 -0.077332 -0.959199 25 19 24
4.96489 -4.75696 19.6876 0.0655625 0.662731 -0.745982 29 24 29
5.004 -4.75839 19.7052 0.0741059 0.646229 -0.759537 30 25 31
5.04585 -4.77501 19.703 0.269582 0.019984 -0.96277 36 33 37
5.20549 -4.77169 19.8585 -0.167549 0.836825 -0.521201 34 34 37
5.16993 -4.79143 19.6994 -0.476596 0.772376 -0.419871 62 60 64
5.20399 -4.77828 19.6918 -0.263392 0.855922 -0.444996 74 72 76
5.7177 -4.8688 19.5968 -0.186293 0.844129 -0.502734 84 79 78
5.9253 -4.90528 19.6733 -0.327625 0.876958 -0.351576 16 11 10
5.99088 -4.90693 19.6487 -0.44021 0.664049 -0.604362 23 21 21
5.90683 -4.91653 19.5768 -0.427482 0.79522 -0.429981 34 32 32
6.00139 -4.93528 19.6395 -0.420939 0.756609 -0.500353 74 73 75
5.97491 -4.92755 19.6293 -0.328747 0.630311 -0.703301 57 56 58
6.07118 -4.94205 19.6722 -0.338709 0.878259 -0.337546 87 85 87
6.07335 -4.95377 19.5243 -0.982526 0.130924 -0.132294 88 79 71
5.96072 -4.96596 19.3322 0.00129657 0.691923 -0.72197 87 69 56
6.01438 -4.97117 19.3429 -0.528616 0.818629 -0.224524 81 63 49
22.3573 -8.71331 10.0513 -0.673715 -0.719749 -0.16754 57 54 55
13.6806 -7.44611 9.37372 -0.922736 -0.128614 0.363342 25 23 23
13.7143 -7.4638 9.34481 -0.868059 -0.190069 -0.458636 24 23 23
13.7224 -7.44139 9.31517 -0.899271 -0.0360398 0.435905 26 24 24
8.57037 -6.88406 7.54401 -0.746718 0.590695 -0.305765 110 106 107
8.56341 -6.8931 7.55016 -0.484036 0.841142 -0.241226 140 135 136
8.57962 -6.88018 7.5227 -0.983226 -0.159664 0.0881678 114 109 110
8.54619 -6.88413 7.49813 -0.964021 -0.106962 -0.243356 73 69 69
8.54313 -6.89797 7.47098 -0.639026 0.643939 -0.420701 49 45 45
-0.815099 -4.04955 18.0074 -0.741479 0.390993 -0.545284 48 43 43
-0.757132 -4.05697 18.0123 -0.800336 0.147507 -0.581123 54 48 48
-0.7135 -4.08036 17.9817 -0.337759 0.779911 -0.526932 78 72 75
-0.658377 -4.08898 17.9906 -0.350078 0.780331 -0.518197 113 109 112
-0.641411 -4.09494 17.9464 -0.800568 0.177217 -0.572437 119 116 120
2.00738 -4.31161 19.3849 -0.0335106 -0.579362 -0.814381 114 100 94
3.61295 -4.28141 21.4056 -0.408707 -0.41661 -0.812031 38 21 15
3.65074 -4.3038 21.3949 -0.335143 -0.756204 -0.561992 60 47 42
3.71044 -4.29947 21.3686 -0.188953 -0.598641 -0.778412 104 91 88
