ply
format ascii 1.0
element vertex 378
property float x
property float y
property float z
property uchar red
property uchar green
property uchar blue
end_header
-0.466068 -0.704731   4.08985 255 255 255
-2.55176  2.64238  4.83326 255 255 255
  1.19317 -0.567047   3.17644 255 255 255
-2.29656 -0.88268  6.27956 255 255 255
 -2.22472 -0.861986   6.24057 255 255 255
 0.363661 -0.382174   3.86256 255 255 255
 0.356623 -0.366669   3.86159 255 255 255
-0.123282 -0.233447   4.25733 255 255 255
-3.53426 0.102481  6.37126 255 255 255
-2.24866 0.315382  5.96266 255 255 255
-2.26958 0.319322  5.97334 255 255 255
-0.0244013   0.272396    3.75556 255 255 255
0.291369 0.312014  3.44713 255 255 255
-0.132811  0.352289   3.80894 255 255 255
-0.300971  0.369617   3.94721 255 255 255
-0.480629  0.432826   4.06448 255 255 255
-1.12509 0.790135  4.46751 255 255 255
-2.41812  1.30949    5.494 255 255 255
-3.26181  1.61593  5.31507 255 255 255
0.167181  1.09688  3.63547 255 255 255
-2.63195  2.20708   5.1062 255 255 255
-3.16086  2.48933  5.23361 255 255 255
-0.822873   1.51573    3.1738 255 255 255
-2.79958     2.47  5.14933 255 255 255
-2.76995  2.47164  5.15024 255 255 255
-1.73691  2.02731  4.22399 255 255 255
-2.22668  2.28284  4.74887 255 255 255
-2.36134  2.31709   4.8196 255 255 255
-2.68959  2.67613  4.92921 255 255 255
-0.181488   1.77688   3.16535 255 255 255
-2.38036  2.73331  4.53142 255 255 255
-0.411088   2.26667   3.06011 255 255 255
-0.360254  -1.16762   4.83121 255 255 255
-0.318551   -1.1208   4.77391 255 255 255
  1.02042 -0.733346   3.31255 255 255 255
  1.13405 -0.723841   3.30327 255 255 255
-0.47423 -1.01036  4.85728 255 255 255
  1.17744 -0.578881   3.19518 255 255 255
 -2.24937 -0.887141    6.2702 255 255 255
 -2.29608 -0.845095   6.25908 255 255 255
 -2.25511 -0.847387   6.26284 255 255 255
  -2.2578 -0.746369   6.20277 255 255 255
-2.23503 -0.71379  6.17449 255 255 255
 0.320581 -0.475054   3.96864 255 255 255
 0.415306 -0.407742   3.80991 255 255 255
0.0271135  -0.42671   4.18321 255 255 255
 0.377135 -0.377396   3.85748 255 255 255
 0.205841 -0.376386    4.0186 255 255 255
 0.247896 -0.337164   3.95625 255 255 255
0.00260721  -0.315167    4.14998 255 255 255
-0.008165 -0.293468   4.14475 255 255 255
-0.0835224  -0.254138    4.22194 255 255 255
-0.211507 -0.218608    4.3148 255 255 255
-0.255075 -0.195635   4.35288 255 255 255
-0.284694 -0.188598   4.37877 255 255 255
-0.588009  -0.14432   4.61669 255 255 255
-0.536717  -0.12204    4.5675 255 255 255
 -0.838063 -0.0559203     4.7576 255 255 255
 -0.928211 -0.0466571    4.75474 255 255 255
0.222497 0.191188  3.56186 255 255 255
0.212467 0.206124  3.55773 255 255 255
-0.164112  0.265205   3.89045 255 255 255
-2.92328 0.467079  5.87891 255 255 255
-0.470593  0.341786   4.14352 255 255 255
0.0486396  0.407369   3.59964 255 255 255
-0.475517  0.509054   4.01274 255 255 255
-0.113045  0.635821   3.61544 255 255 255
-0.135142  0.652443   3.61292 255 255 255
0.0537686  0.682598   3.43405 255 255 255
-1.01288 0.841692  3.52307 255 255 255
 0.28069 0.938363  3.18444 255 255 255
-0.0856709    1.06349    3.45181 255 255 255
-1.81565  1.61955  4.51601 255 255 255
-1.7602 1.85273 4.34481 255 255 255
-3.20207  2.48847  5.28444 255 255 255
-2.36634  2.28761  4.83507 255 255 255
-3.09814  2.47022  5.19645 255 255 255
-2.35534  2.30609  4.83508 255 255 255
-2.78635  2.46273  5.15565 255 255 255
-2.30239  2.28928  4.79717 255 255 255
-2.58091  2.38403  4.97068 255 255 255
-2.32484  2.30341  4.79354 255 255 255
-2.26371  2.28779  4.76031 255 255 255
-2.73928  2.74751  4.95108 255 255 255
-2.06782  2.74489  4.52362 255 255 255
-0.0147976    1.86955     2.9258 255 255 255
-0.385714   2.25869   3.03758 255 255 255
   1.4271 -0.773409    3.0993 255 255 255
-0.555705  -1.13356   4.98619 255 255 255
  1.13193 -0.756607   3.30671 255 255 255
-1.01194  -1.1556  5.34399 255 255 255
  1.19156 -0.743606   3.27541 255 255 255
  1.30951 -0.724395   3.18916 255 255 255
  1.1473 -0.74305  3.31578 255 255 255
-0.987955  -1.13665   5.34045 255 255 255
  1.20855 -0.720849   3.24193 255 255 255
   1.1887 -0.650832   3.22357 255 255 255
 0.384682 -0.393653   3.84556 255 255 255
  0.40016 -0.381987   3.84223 255 255 255
 0.285458 -0.357916   3.93607 255 255 255
 0.215074 -0.350803   3.98969 255 255 255
 0.218665 -0.329413   3.98616 255 255 255
-0.0335602  -0.270023    4.17166 255 255 255
-0.231896  -0.22455   4.34254 255 255 255
-0.154682 -0.223205   4.29709 255 255 255
 -3.64307 -0.334935    7.3802 255 255 255
 -0.33929 -0.187689   4.41635 255 255 255
-0.427484 -0.164017   4.48766 255 255 255
-0.484992 -0.150311   4.52663 255 255 255
-0.595559 -0.102848   4.60565 255 255 255
 -0.851152 -0.0714327    4.75995 255 255 255
 -0.874817 -0.0487921    4.76264 255 255 255
  -0.917118 0.000675591     4.73573 255 255 255
-2.28908 0.341511  5.93679 255 255 255
-0.0525652   0.266935    3.77654 255 255 255
-0.31707 0.360078  3.96446 255 255 255
-0.912533  0.754842   4.37217 255 255 255
0.238209 0.577649  2.78459 255 255 255
-2.3859 1.18032 5.49678 255 255 255
-0.497386  0.767019   3.09714 255 255 255
-1.88405  1.28836   4.7562 255 255 255
-2.33551  1.44955  5.23486 255 255 255
-0.0343652    1.06534    3.41931 255 255 255
-2.27575  2.26168  4.78684 255 255 255
-3.13668   2.4956  5.22153 255 255 255
-0.746112   1.54967   3.20668 255 255 255
-0.457249   1.88013   3.36257 255 255 255
-2.31155  2.58931  4.57151 255 255 255
-0.408367   1.69899   2.52809 255 255 255
-2.29325  2.93829  4.36255 255 255 255
-0.597461   2.32748   3.18918 255 255 255
-0.548788   2.31535   3.14863 255 255 255
-0.36338  2.24669  3.01832 255 255 255
 1.21129 -1.47775  3.33891 255 255 255
  1.43953 -0.791306   3.03551 255 255 255
  1.03588 -0.793423   3.32023 255 255 255
  1.38293 -0.762386   3.14262 255 255 255
  1.30789 -0.761308   3.19249 255 255 255
  1.32312 -0.748088   3.18567 255 255 255
  1.31946 -0.596489   3.09775 255 255 255
  1.00595 -0.584443   3.23485 255 255 255
  -2.6591 -0.549106   6.60041 255 255 255
 -2.73037 -0.452468   6.55557 255 255 255
-0.162683 -0.244255   4.30865 255 255 255
-0.388783 -0.174416   4.43672 255 255 255
  -1.00267 -0.0437009    4.75411 255 255 255
-2.73962 0.412138  6.09959 255 255 255
-0.530606  0.352506   4.14187 255 255 255
-3.07338  1.06439  5.92013 255 255 255
-0.471122  0.680605   3.13259 255 255 255
-0.939217  0.945205   3.63702 255 255 255
-2.31508  1.46604  5.24894 255 255 255
-3.0888 2.05713 5.63069 255 255 255
-0.86358  1.53857  3.20654 255 255 255
-2.38943  2.33635  4.83708 255 255 255
-3.18042  2.83133  5.26717 255 255 255
-2.77248  2.71411  4.97156 255 255 255
-0.311446   1.82933   3.26075 255 255 255
-2.2516   2.642 4.61533 255 255 255
-2.67589  2.79655  4.88877 255 255 255
-2.21286  2.70806  4.68994 255 255 255
-2.41851  2.68015  4.60505 255 255 255
-2.26268  2.69603  4.46665 255 255 255
-0.62687  2.33679  3.21289 255 255 255
-0.5309 2.30136 3.14201 255 255 255
  1.33682 -0.734021   3.16737 255 255 255
 1.38991 -0.71511  3.10662 255 255 255
0.351571 -0.38503   3.8762 255 255 255
-2.80549 0.262448  6.17731 255 255 255
-0.155471  0.552724   3.69793 255 255 255
0.323399 0.934614  3.14674 255 255 255
0.205531 0.980244  3.23567 255 255 255
-0.0728476    1.07782    3.44789 255 255 255
-3.2672 2.21001 5.48395 255 255 255
-0.293514   1.80513   3.24542 255 255 255
-0.176605   1.78069   3.15804 255 255 255
0.0157983   1.70477   3.01316 255 255 255
0.301322  1.58923  2.80081 255 255 255
-2.5609 2.72488 4.77415 255 255 255
-2.0594 2.95815 4.40173 255 255 255
-2.16835  2.88195  4.27664 255 255 255
-2.20726   2.9122  4.29629 255 255 255
-2.44732  3.19292  4.26733 255 255 255
-2.77813  3.37421  4.50116 255 255 255
-1.26181 -1.06349  5.53938 255 255 255
 -3.17994 -0.366905   7.04701 255 255 255
-0.517011  0.380059   4.13933 255 255 255
-0.79094 0.462215  4.32542 255 255 255
-2.86422  2.09657  5.44238 255 255 255
-2.53133  2.32821  4.93795 255 255 255
-3.20421  2.51202  5.27603 255 255 255
-0.384822   2.23808    3.0407 255 255 255
0.0367811 -0.304261   4.13964 255 255 255
0.00844947   0.230576    3.75363 255 255 255
-0.529006   1.62459   3.53686 255 255 255
-3.13143  2.44246  5.26776 255 255 255
-0.245306   1.80418   3.19297 255 255 255
  1.01687 -0.391498   2.71068 255 255 255
-0.421794  -0.26805   4.52527 255 255 255
 -2.9557 0.246865  6.03768 255 255 255
-2.51881  2.37313  4.90567 255 255 255
-2.25272  2.32312  4.77003 255 255 255
-2.86811  2.81223  5.03201 255 255 255
0.104607  1.68244  2.95433 255 255 255
 -1.3161 -1.39428  5.01015 255 255 255
-2.85639 0.216402  6.06975 255 255 255
-2.86094  0.34738  6.06378 255 255 255
-3.41765  2.08673  5.44048 255 255 255
-3.37697  2.04851   5.1904 255 255 255
-1.37222 -1.29384  5.13694 255 255 255
    -1.0353 4.86384e-05     4.70329 255 255 255
-3.47708  1.28496  6.18594 255 255 255
-1.46309  1.08019  3.90028 255 255 255
-0.860519 -0.804356   5.05421 255 255 255
0.0173319   1.74469   3.03189 255 255 255
 -3.85373 -0.844507   7.48258 255 255 255
-3.12327  3.04886   5.8811 255 255 255
-3.20799  2.20069  5.07339 255 255 255
0.285518  1.20485  2.28244 255 255 255
-1.16599  -1.1852  5.05626 255 255 255
-1.05547 0.545171  4.21971 255 255 255
-0.353235 -0.157122   4.31735 255 255 255
0.445864 0.159935  3.76923 255 255 255
0.160544 0.307848  3.79188 255 255 255
-0.459286  0.467283   3.97896 255 255 255
-0.388716   0.47164   3.94159 255 255 255
-0.157148  0.416156   3.86068 255 255 255
0.523797 0.268565  3.67867 255 255 255
0.511109 0.316148  3.66127 255 255 255
  0.4312 0.335056  3.68567 255 255 255
0.144855 0.468567  3.70776 255 255 255
-0.165657  0.566845   3.79049 255 255 255
-0.209509  0.709678   3.72733 255 255 255
0.0490056  0.727072   3.61738 255 255 255
0.0275552  0.744544   3.61295 255 255 255
-0.563507   2.28054   3.11536 255 255 255
  1.37625 -0.834773   3.93866 255 255 255
-0.310049 -0.295443   4.37174 255 255 255
 0.326928 -0.408025   4.16192 255 255 255
 0.314517 -0.371052   4.14488 255 255 255
-2.22954 0.439053  5.23486 255 255 255
-0.116784  0.305204   3.91344 255 255 255
-0.125684  0.320699    3.9068 255 255 255
-1.02426  0.70518  4.20644 255 255 255
-1.03546 0.710301  4.20882 255 255 255
-1.01305 0.711141   4.1961 255 255 255
0.255676 0.537021  3.63057 255 255 255
-0.245393  0.674687   3.76246 255 255 255
-0.148552  0.749027   3.67809 255 255 255
0.0593694  0.740866   3.60491 255 255 255
-2.00962  1.32469  4.72112 255 255 255
-1.78487   1.4424   4.3539 255 255 255
-1.73111  1.57112  4.36194 255 255 255
-1.59715  1.77245  3.93018 255 255 255
-1.57898  1.83659  3.85895 255 255 255
-0.46022 -1.13155  4.78094 255 255 255
-0.383165    -1.132    4.7528 255 255 255
  1.37946 -0.803061   3.92199 255 255 255
 0.275275 -0.420547   4.18415 255 255 255
 0.256355 -0.411877   4.18623 255 255 255
  0.58747 -0.494051   4.05202 255 255 255
 -0.982019 -0.0574485    4.47346 255 255 255
0.509843 -0.44673  4.08566 255 255 255
 -0.5511 -0.13159  4.38828 255 255 255
-2.04317 0.398998  5.12819 255 255 255
-2.20384 0.468858  5.21397 255 255 255
-2.68556 0.652018  5.23553 255 255 255
-0.484369   0.33786   4.07413 255 255 255
-0.792258  0.418358   4.16666 255 255 255
0.209261 0.180989  3.57449 255 255 255
-0.142109  0.277164   3.93821 255 255 255
-0.176892  0.302816   3.93443 255 255 255
-0.129362  0.293907   3.91908 255 255 255
-0.465321  0.510796   3.94657 255 255 255
-0.901361  0.685243   4.16439 255 255 255
-0.316719  0.543794   3.86081 255 255 255
-0.182241  0.535141   3.80971 255 255 255
-2.33965   1.3135  5.26387 255 255 255
-2.35006  1.32675  5.25956 255 255 255
-2.37568  1.38152  5.27984 255 255 255
-2.36583  1.41138  5.37347 255 255 255
-2.3642 1.44688 5.31371 255 255 255
0.0435465  0.744092   3.61084 255 255 255
-0.225618   1.12166   3.60572 255 255 255
-1.61998  1.53526    4.223 255 255 255
-1.87893   1.6407  4.30884 255 255 255
-1.69574  1.61226   4.0975 255 255 255
-1.64817  1.65555  4.05257 255 255 255
-1.5593 1.71022 4.05637 255 255 255
-1.59562   1.8642  3.84371 255 255 255
-0.930604  -1.08423   4.93201 255 255 255
-2.00619 -0.69789   5.2426 255 255 255
-0.360381  -1.16957   4.74801 255 255 255
 -2.03861 -0.602748   5.22723 255 255 255
 -2.04583 -0.525613   5.19274 255 255 255
 -2.23043 -0.375122   5.34454 255 255 255
-0.506003 -0.680624      4.28 255 255 255
-2.60016 0.166854  5.18835 255 255 255
  -1.00269 -0.0445426    4.48351 255 255 255
  0.27593 -0.378352   4.16441 255 255 255
-0.106931 -0.256066   4.26402 255 255 255
-2.63673 0.471427  5.16431 255 255 255
-2.60559 0.678675  4.83974 255 255 255
0.284388 0.126873  3.83445 255 255 255
-0.0669208   0.222455     3.8796 255 255 255
-0.142486  0.307915   3.91975 255 255 255
-0.179577  0.421196   3.87272 255 255 255
-0.358162  0.467686   3.91699 255 255 255
-0.294992  0.471486   3.88887 255 255 255
-0.686276  0.570723   4.02374 255 255 255
-0.918919  0.679705   4.17938 255 255 255
0.0836548  0.459894   3.74253 255 255 255
0.0127637  0.572299   3.70795 255 255 255
-2.36189  1.35145  5.27899 255 255 255
 0.19756 0.706277  3.56111 255 255 255
-1.66077  1.54355    4.257 255 255 255
-2.26371  2.28779  4.76031 255 255 255
-1.58268  1.85774  3.84552 255 255 255
-0.180756   1.80729   3.25393 255 255 255
-0.365485   2.25708   3.04243 255 255 255
-0.949269  -1.06442   4.93276 255 255 255
 -1.97412 -0.744747   5.26171 255 255 255
-1.03275 -1.02176  4.98146 255 255 255
-0.33598 -1.17167  4.73757 255 255 255
 -2.00237 -0.559848   5.20029 255 255 255
-2.00367 -0.52664  5.17867 255 255 255
 -1.92475 -0.438693   5.29477 255 255 255
  -0.88866 -0.0522004     4.4627 255 255 255
-0.0107709 -0.0982486    4.13133 255 255 255
 -0.203948 -0.0394014    4.19365 255 255 255
-2.99435 0.985006   5.7282 255 255 255
-0.00591059    0.376596     3.82301 255 255 255
-0.0208931   0.401887    3.82038 255 255 255
-0.326574  0.480144   3.90342 255 255 255
0.00429634   0.480288    3.76587 255 255 255
-0.996673   0.71907   4.18786 255 255 255
-0.917842  0.700793   4.15702 255 255 255
-0.00110225    0.631008     3.68274 255 255 255
0.00827223   0.749435    3.61563 255 255 255
-0.837019   1.53353   3.18407 255 255 255
-0.346412   2.25036   3.04703 255 255 255
 -2.22493 -0.315327   5.32369 255 255 255
-2.31639 -0.26586  5.35068 255 255 255
 0.130862 -0.359256   4.16221 255 255 255
  -1.05533 -0.0280169    4.47836 255 255 255
0.00205061  -0.280736     4.2097 255 255 255
-0.152163  0.491526   3.81772 255 255 255
-2.10573  1.05975  5.00424 255 255 255
-2.72214  1.28754  5.53509 255 255 255
-2.7681 1.42503 5.61934 255 255 255
0.161577 0.712936  3.56732 255 255 255
0.0541369  0.740362   3.61267 255 255 255
-0.503152   1.19845   3.69888 255 255 255
-0.534861    2.2717   3.11059 255 255 255
-1.02486 0.159513  4.36748 255 255 255
-2.57295 0.604831  5.30748 255 255 255
-1.79059   1.4228  4.37141 255 255 255
-1.62393  1.86581  3.83352 255 255 255
  1.63116 -0.537641   3.29533 255 255 255
-0.0447309   0.249664    3.90005 255 255 255
-0.223969  0.300267    3.9524 255 255 255
-0.425727  0.352401    4.0335 255 255 255
-0.528348   1.17413   3.71673 255 255 255
-1.65067  1.62426  4.09717 255 255 255
-1.66353  1.67895  4.03993 255 255 255
-1.62643  1.69872  4.05351 255 255 255
-1.60879  1.84233   3.8692 255 255 255
 0.529709 -0.560754   4.15586 255 255 255
-1.90698  1.29079  4.56763 255 255 255
-2.31204 0.564643   5.2998 255 255 255
0.0349412   1.09452   3.50707 255 255 255
-0.553492   1.58628   3.55075 255 255 255
 -0.84995 -0.830641   4.85029 255 255 255
0.220057 -0.23457  4.11332 255 255 255
 -1.04644 -0.219728   4.44711 255 255 255
0 0 0 0 255 0
-0.645322  0.128062  0.243211 0 255 0
-1.29459 0.500024  1.29987 0 255 0
