ply
format ascii 1.0
element vertex 378
property float x
property float y
property float z
property uchar red
property uchar green
property uchar blue
end_header
-0.534465  -1.32709   3.92567 255 255 255
-2.67969  2.00214   4.6449 255 255 255
 1.25622 -1.11158  3.23335 255 255 255
-2.14528  -1.6045  5.29196 255 255 255
-2.08475 -1.58435  5.27011 255 255 255
 0.329258 -0.974933    3.7596 255 255 255
0.321994 -0.95882  3.75956 255 255 255
-0.181604 -0.858129   4.04851 255 255 255
 -3.29072 -0.734205   5.42943 255 255 255
  -2.1643 -0.496235    5.1792 255 255 255
 -2.18277 -0.494664   5.18547 255 255 255
-0.076858 -0.278332   3.71504 255 255 255
 0.268975 -0.193661   3.48213 255 255 255
-0.192558  -0.20092   3.75977 255 255 255
-0.369923 -0.201722   3.86418 255 255 255
-0.557216 -0.151839   3.95516 255 255 255
-1.21267 0.158295  4.26885 255 255 255
-2.40853 0.509055   4.9698 255 255 255
-3.28249 0.844991  4.91153 255 255 255
0.130691 0.626472  3.66042 255 255 255
-2.70212  1.48069  4.79179 255 255 255
-3.22747  1.74254  4.90684 255 255 255
-0.975375   1.19976   3.34931 255 255 255
-2.87324  1.73972  4.83918 255 255 255
-2.84284  1.74077  4.83858 255 255 255
-1.89218  1.50509  4.17588 255 255 255
-2.34814  1.64818   4.5666 255 255 255
-2.47602   1.6652  4.61398 255 255 255
-2.8073  2.0121  4.7125 255 255 255
-0.250649   1.49637   3.34093 255 255 255
-2.55419  2.18636   4.4497 255 255 255
-0.516011   2.09778   3.28449 255 255 255
-0.411627  -1.81038   4.39098 255 255 255
-0.371714  -1.76379   4.35583 255 255 255
 1.05492 -1.29998  3.33464 255 255 255
 1.17716 -1.28805    3.326 255 255 255
-0.523597   -1.6618   4.41657 255 255 255
 1.23714 -1.12582  3.24767 255 255 255
 -2.1033 -1.60782  5.28521 255 255 255
-2.14807 -1.57047  5.28304 255 255 255
-2.1072 -1.5694 5.27461 255 255 255
-2.12178 -1.48012  5.25668 255 255 255
-2.10388 -1.44926  5.23897 255 255 255
0.280432 -1.07907  3.83167 255 255 255
 0.385216 -0.996994   3.72045 255 255 255
-0.0267859   -1.04729    3.98721 255 255 255
 0.343545 -0.969501   3.75594 255 255 255
 0.160369 -0.982272   3.87211 255 255 255
 0.205301 -0.935899   3.82651 255 255 255
-0.0516681  -0.931427    3.96927 255 255 255
-0.0627291  -0.908923    3.96676 255 255 255
-0.140785  -0.87575   4.02202 255 255 255
-0.271765 -0.848609   4.09016 255 255 255
-0.316051 -0.828991   4.11777 255 255 255
-0.346022 -0.824354   4.13616 255 255 255
-0.648519 -0.802893   4.30336 255 255 255
-0.598135 -0.775103   4.26703 255 255 255
 -0.89484 -0.729467   4.40588 255 255 255
-0.985359 -0.720523   4.40767 255 255 255
 0.190794 -0.339441   3.56449 255 255 255
 0.180137 -0.322889   3.56215 255 255 255
-0.225843 -0.303383   3.80752 255 255 255
 -2.80518 -0.347527   5.14072 255 255 255
-0.544229 -0.257186   4.00551 255 255 255
0.00304401   -0.11249    3.60459 255 255 255
 -0.553576 -0.0646535    3.92229 255 255 255
-0.171766  0.131438   3.63017 255 255 255
-0.195693  0.149837    3.6296 255 255 255
0.0109845  0.212264   3.49204 255 255 255
-1.15949 0.372614   3.6003 255 255 255
0.267726 0.540507   3.3065 255 255 255
-0.142394  0.627184    3.5249 255 255 255
-1.93578  1.00774  4.36242 255 255 255
-1.90189  1.29106  4.25719 255 255 255
-3.25883  1.72885  4.93862 255 255 255
-2.47636  1.62894  4.61883 255 255 255
-3.17012  1.73185  4.88073 255 255 255
-2.46546    1.648  4.61943 255 255 255
-2.85832  1.73045  4.84201 255 255 255
-2.41612  1.63987  4.59269 255 255 255
-2.67807  1.69567   4.7167 255 255 255
-2.4403 1.65572 4.59196 255 255 255
-2.3816 1.64753 4.56784 255 255 255
-2.85748  2.08132  4.73243 255 255 255
-2.22302  2.19557  4.43315 255 255 255
-0.0600043     1.6693    3.14697 255 255 255
-0.48735  2.09618  3.26614 255 255 255
 1.51257 -1.32526  3.16354 255 255 255
-0.599178  -1.78348   4.49347 255 255 255
 1.17397 -1.32298  3.32747 255 255 255
-1.02377 -1.81661  4.72049 255 255 255
 1.24088 -1.30664   3.3031 255 255 255
 1.37654 -1.27953  3.23579 255 255 255
 1.18968 -1.30898  3.33455 255 255 255
-1.00132  -1.7987  4.71841 255 255 255
 1.26293 -1.28024  3.27808 255 255 255
 1.24493 -1.20468   3.2668 255 255 255
  0.35182 -0.985361    3.7468 255 255 255
0.368183 -0.97291  3.74458 255 255 255
 0.245327 -0.956205   3.81364 255 255 255
 0.170874 -0.954156   3.85418 255 255 255
 0.174557 -0.931291   3.85096 255 255 255
-0.089107 -0.887437   3.98666 255 255 255
-0.292392 -0.857138   4.10904 255 255 255
-0.213743 -0.851388   4.07652 255 255 255
-3.19367 -1.18551  5.89929 255 255 255
-0.401123 -0.827077   4.16275 255 255 255
-0.489534 -0.810147   4.21342 255 255 255
-0.546975 -0.800244   4.24133 255 255 255
-0.656754 -0.760663   4.29828 255 255 255
-0.907679 -0.745084   4.40713 255 255 255
-0.931461 -0.723091    4.4107 255 255 255
-0.975724 -0.671777   4.39734 255 255 255
-2.20602 -0.47041  5.16726 255 255 255
-0.106979 -0.286926    3.7307 255 255 255
 -0.38665 -0.214099   3.87644 255 255 255
-1.00033 0.137345   4.2099 255 255 255
0.232189 0.207405  2.96707 255 255 255
-2.37409 0.383238  4.96426 255 255 255
-0.60447 0.367337  3.24694 255 255 255
 -1.9721 0.618745  4.50499 255 255 255
-2.36695 0.692376   4.8217 255 255 255
-0.0856851   0.636017    3.50081 255 255 255
-2.38943  1.61362  4.58374 255 255 255
-3.20541  1.75175  4.89889 255 255 255
-0.887332   1.23132   3.37791 255 255 255
-0.55826  1.56257  3.50786 255 255 255
-2.46968  2.01845  4.46477 255 255 255
-0.52302  1.58799  2.80852 255 255 255
-2.49631  2.46233   4.3458 255 255 255
-0.725788   2.12948   3.39644 255 255 255
-0.671604   2.12787   3.36202 255 255 255
-0.461963   2.08777   3.24877 255 255 255
 1.24235 -2.07788   3.3295 255 255 255
 1.53394 -1.34087   3.1137 255 255 255
 1.06973 -1.36383  3.33805 255 255 255
 1.45991 -1.31644  3.19773 255 255 255
 1.37369 -1.31912  3.23716 255 255 255
 1.39104 -1.30444  3.23213 255 255 255
 1.40038 -1.13612  3.16913 255 255 255
 1.04874 -1.13635   3.2808 255 255 255
-2.44034 -1.32516  5.48303 255 255 255
-2.51275 -1.23829  5.46746 255 255 255
-0.221846 -0.873727   4.08368 255 255 255
-0.451167 -0.815825   4.17826 255 255 255
 -1.05993 -0.717655   4.40943 255 255 255
  -2.6065 -0.423934   5.27099 255 255 255
-0.606997 -0.246002   4.00688 255 255 255
-2.96655 0.206966  5.21815 255 255 255
-0.573257  0.263462   3.27059 255 255 255
-1.07054 0.464561  3.68017 255 255 255
-2.34502 0.706069  4.83025 255 255 255
-3.0609 1.21365 5.10807 255 255 255
-1.02044  1.21961  3.38087 255 255 255
-2.50214  1.67893  4.62553 255 255 255
-3.25384  2.08436  4.94822 255 255 255
-2.887  2.041 4.7445 255 255 255
-0.396507   1.53141   3.42213 255 255 255
-2.40075  2.06073  4.49395 255 255 255
-2.80471   2.1502  4.69405 255 255 255
-2.35022  2.10815   4.5444 255 255 255
-2.58035  2.10739  4.49609 255 255 255
-2.43805  2.16393  4.40014 255 255 255
-0.758441   2.13301    3.4166 255 255 255
-0.651254   2.11343    3.3556 255 255 255
 1.40811 -1.28815  3.21832 255 255 255
 1.47279 -1.26355  3.17128 255 255 255
  0.31613 -0.979048   3.76935 255 255 255
 -2.64843 -0.567715    5.2981 255 255 255
-0.217303 0.0289291   3.68843 255 255 255
0.316008 0.543277  3.27284 255 255 255
0.182646 0.577436   3.3498 255 255 255
-0.12818 0.644258  3.52396 255 255 255
-3.27262  1.39961  5.04121 255 255 255
-0.376443   1.50789   3.40844 255 255 255
-0.245165   1.50267   3.33516 255 255 255
-0.025884   1.45304    3.2105 255 255 255
0.306723  1.37359  3.02402 255 255 255
-2.70256  2.10676  4.61296 255 255 255
-2.23822  2.46584  4.36454 255 255 255
-2.37321  2.42631  4.27958 255 255 255
-2.41329  2.45397  4.29617 255 255 255
-2.68932   2.7803  4.29767 255 255 255
-3.00862  2.90146  4.47303 255 255 255
-1.25049 -1.73836  4.84537 255 255 255
-2.84313 -1.19242  5.72657 255 255 255
-0.592461 -0.216279   3.99595 255 255 255
-0.870615 -0.156067   4.13856 255 255 255
-2.87416  1.29272  4.99377 255 255 255
-2.63098  1.64604  4.69145 255 255 255
-3.26371   1.7551  4.93516 255 255 255
-0.486093   2.07016    3.2667 255 255 255
-0.0170632  -0.916815    3.95339 255 255 255
-0.0415671   -0.32288    3.71441 255 255 255
-0.631354   1.23186   3.63074 255 255 255
-3.18838   1.6853  4.92282 255 255 255
-0.322413   1.52766   3.38042 255 255 255
  1.11337 -0.881677   2.86841 255 255 255
-0.482416 -0.917001   4.23356 255 255 255
 -2.81458 -0.570027   5.23907 255 255 255
-2.62476  1.70077  4.67341 255 255 255
-2.36959  1.68168  4.57551 255 255 255
-2.97839  2.12755  4.79173 255 255 255
0.0765025   1.44236   3.15951 255 255 255
-1.33418 -2.03863  4.52264 255 255 255
 -2.72359 -0.603052   5.26842 255 255 255
 -2.72421 -0.479563   5.25444 255 255 255
-3.42913  1.28849  5.01651 255 255 255
-3.44221  1.30752   4.8664 255 255 255
-1.38084  -1.9459  4.60484 255 255 255
 -1.09635 -0.669838   4.38085 255 255 255
-3.30646 0.373867  5.38599 255 255 255
-1.62171 0.561852  3.90408 255 255 255
-0.895931  -1.47584   4.55782 255 255 255
-0.024381   1.49398   3.22761 255 255 255
-3.34401 -1.61901   5.9318 255 255 255
-3.0793  2.1273 5.30668 255 255 255
-3.29949  1.48888  4.79648 255 255 255
0.307239  1.05282  2.55562 255 255 255
-1.19635 -1.85889  4.59723 255 255 255
 -1.15619 -0.057735    4.0985 255 255 255
-0.405666 -0.796891   4.15935 255 255 255
 0.336936 -0.356408   3.48826 255 255 255
0.0768041  -0.22292   3.59181 255 255 255
-0.531928 -0.102804    3.9334 255 255 255
 -0.459846 -0.0913546    3.88394 255 255 255
-0.227722 -0.132105   3.74644 255 255 255
 0.405638 -0.233363   3.39883 255 255 255
0.395451 -0.18435  3.39224 255 255 255
 0.325842 -0.171763   3.43717 255 255 255
 0.0617464 -0.0477443    3.53701 255 255 255
 -0.23809 0.0368321   3.70027 255 255 255
-0.283652  0.196396    3.6696 255 255 255
-0.0293762   0.232887    3.50812 255 255 255
-0.0508718   0.252141    3.50944 255 255 255
-0.683145   2.12875   3.37235 255 255 255
  1.0442 -1.20772  3.28111 255 255 255
-0.360567 -0.940609   4.18028 255 255 255
 0.235658 -0.971908   3.81702 255 255 255
 0.224916 -0.935617   3.80999 255 255 255
-2.36132 -0.32724  5.19295 255 255 255
-0.185996 -0.253515   3.77424 255 255 255
-0.195037 -0.236865   3.77169 255 255 255
 -1.1349 0.112137  4.27756 255 255 255
-1.14731 0.117305  4.28132 255 255 255
-1.12314 0.120013  4.26868 255 255 255
 0.164796 0.0360839   3.44673 255 255 255
-0.319299  0.153868   3.70599 255 255 255
-0.223864  0.246436   3.61215 255 255 255
-0.0197626   0.249435    3.49489 255 255 255
-2.16871 0.683803  4.67727 255 255 255
-1.98179 0.889755   4.4587 255 255 255
-1.91708  1.00322  4.35416 255 255 255
-1.8336 1.37458  4.2093 255 255 255
-1.82353  1.47206  4.16934 255 255 255
-0.502149  -1.80828   4.43206 255 255 255
-0.428027   -1.7971   4.39013 255 255 255
 1.04979 -1.17966  3.27289 255 255 255
 0.188716 -0.990974    3.8467 255 255 255
 0.172366 -0.985325     3.856 255 255 255
0.447401 -1.00759  3.61968 255 255 255
 -1.06036 -0.746199     4.432 255 255 255
 0.389661 -0.979333   3.68816 255 255 255
-0.604904  -0.79305   4.27465 255 255 255
 -2.17522 -0.356644   5.11713 255 255 255
 -2.33676 -0.293425   5.17744 255 255 255
  -2.82008 -0.0992949     5.1003 255 255 255
-0.563409 -0.250235   3.98601 255 255 255
-0.877998 -0.190295    4.1696 255 255 255
 0.175981 -0.352146   3.57261 255 255 255
-0.210479 -0.286916   3.79955 255 255 255
-0.245124 -0.261328   3.80721 255 255 255
-0.198393 -0.266734   3.78083 255 255 255
 -0.539737 -0.0523523    3.90954 255 255 255
 -1.00068 0.0978232   4.22296 255 255 255
   -0.38919 -0.00114667     3.79821 255 255 255
    -0.25407 -0.000306225        3.719 255 255 255
-2.41248 0.565635  4.95348 255 255 255
-2.42203 0.578968  4.94474 255 255 255
-2.43983 0.627293  4.93891 255 255 255
-2.41361 0.640054  4.98719 255 255 255
-2.42079 0.683714  4.94972 255 255 255
-0.0347263   0.251772    3.50529 255 255 255
-0.299117  0.663824   3.62349 255 255 255
-1.81634  1.02289  4.37563 255 255 255
-2.09597  1.11593  4.44297 255 255 255
-1.92074  1.14187  4.30373 255 255 255
-1.87327  1.20361   4.2771 255 255 255
-1.77137    1.264  4.28028 255 255 255
-1.8465 1.51074 4.16662 255 255 255
-0.968177  -1.83283   4.68239 255 255 255
-2.12603 -1.58023  5.26959 255 255 255
-0.408861  -1.82342   4.36328 255 255 255
-2.16364 -1.47255  5.25462 255 255 255
-2.17742  -1.3874   5.2329 255 255 255
-2.37819 -1.25456  5.42988 255 255 255
-0.588892  -1.28101   3.94801 255 255 255
 -2.78955 -0.629167   5.22623 255 255 255
-1.08243 -0.73364  4.44365 255 255 255
 0.190592 -0.948709    3.8368 255 255 255
-0.163819 -0.872941   4.03993 255 255 255
 -2.80253 -0.285597   5.11461 255 255 255
  -2.81167 -0.0218929    4.83347 255 255 255
 0.189876 -0.405403   3.57829 255 255 255
-0.119684 -0.338756   3.74756 255 255 255
-0.211285 -0.252654   3.78632 255 255 255
-0.249801 -0.128753   3.76324 255 255 255
 -0.429913 -0.0909597    3.85022 255 255 255
 -0.365547 -0.0820168    3.81255 255 255 255
  -0.771936 -0.00332248     4.03485 255 255 255
 -1.01926 0.0898954   4.23648 255 255 255
0.00505862 -0.0633831    3.58522 255 255 255
-0.0640005  0.0570564     3.5817 255 255 255
-2.42926 0.598792  4.95018 255 255 255
0.110138 0.220326  3.41423 255 255 255
-1.85802  1.02341  4.39974 255 255 255
-2.37589  1.64343  4.55521 255 255 255
-1.83028   1.5011  4.16311 255 255 255
-0.259905   1.49442   3.36098 255 255 255
-0.462035   2.08776   3.24873 255 255 255
-0.987232  -1.81897   4.69706 255 255 255
-2.08597 -1.62812   5.2734 255 255 255
-1.07093 -1.79711  4.78134 255 255 255
-0.384949  -1.82392   4.35241 255 255 255
-2.12657 -1.42231  5.23041 255 255 255
-2.13136 -1.38545  5.21585 255 255 255
-2.03612 -1.30464  5.34436 255 255 255
-0.959982 -0.735425    4.4105 255 255 255
-0.0757008  -0.689287    3.90957 255 255 255
-0.260762 -0.650934   4.02457 255 255 255
-2.97693 0.172785  5.23066 255 255 255
-0.0802368  -0.163018    3.67057 255 255 255
-0.0943613  -0.136937    3.67574 255 255 255
 -0.397376 -0.0753858    3.83437 255 255 255
-0.0705938 -0.0475539    3.62897 255 255 255
-1.10558 0.130548  4.25844 255 255 255
-1.01963 0.116055  4.21811 255 255 255
-0.0774681   0.121654    3.56936 255 255 255
-0.0698713   0.256851    3.51643 255 255 255
-0.993592   1.22137   3.33956 255 255 255
-0.444098   2.07492   3.24548 255 255 255
-2.36852 -1.17737  5.38363 255 255 255
-2.46896 -1.12886  5.41722 255 255 255
0.0805615 -0.955867     3.904 255 255 255
 -1.14034 -0.717466   4.44694 255 255 255
-0.0635293  -0.880107    3.95254 255 255 255
 -0.223632 -0.0471165    3.71487 255 255 255
-2.23256 0.360545  4.88234 255 255 255
-2.71857  0.48743    5.027 255 255 255
-2.72741 0.597724  5.01132 255 255 255
0.0758643  0.226018    3.4285 255 255 255
-0.0242373   0.247967    3.50444 255 255 255
-0.591147  0.739331   3.77847 255 255 255
-0.650812   2.11511   3.35972 255 255 255
 -1.11683 -0.502989    4.3632 255 255 255
   -2.696 -0.157181   5.17167 255 255 255
-1.98542  0.86419  4.46908 255 255 255
-1.88223  1.51742  4.16472 255 255 255
  1.45384 -0.924954   2.81226 255 255 255
-0.117044 -0.305968    3.7349 255 255 255
-0.291847 -0.268173   3.83387 255 255 255
-0.493927 -0.231939   3.96574 255 255 255
-0.617761  0.710022   3.79644 255 255 255
-1.86896  1.15421  4.29985 255 255 255
-1.89362  1.23476  4.27449 255 255 255
-1.84905  1.25255  4.28199 255 255 255
-1.85754  1.47504  4.17826 255 255 255
0.407371 -1.09377  3.73429 255 255 255
-2.08348  0.68003  4.59166 255 255 255
 -2.43035 -0.198307   5.19687 255 255 255
-0.0367505   0.643773    3.46817 255 255 255
-0.653071   1.20904   3.70061 255 255 255
-0.887786  -1.58344   4.67111 255 255 255
 0.13992 -0.80611  3.82123 255 255 255
 -1.13062 -0.908338   4.36301 255 255 255
0 0 0 0 255 0
-0.921208  0.130339  0.323563 0 255 0
-1.76154 0.268888 0.734773 0 255 0
