ply
format ascii 1.0
element vertex 225
property float x
property float y
property float z
property uchar red
property uchar green
property uchar blue
end_header
-0.36837 -1.35919  4.18654 255 255 255
-2.46233  1.91661  4.95397 255 255 255
 1.36409 -1.13553  3.43791 255 255 255
-1.8945 -1.6465 5.62254 255 255 255
-1.83573 -1.62622  5.59929 255 255 255
0.474299 -1.00781  4.00199 255 255 255
0.467185 -0.99207  4.00224 255 255 255
-0.0158718  -0.897133    4.31129 255 255 255
 -3.02618 -0.796187   5.78415 255 255 255
 -1.92208 -0.558431   5.51936 255 255 255
   -1.94 -0.55596  5.52669 255 255 255
0.0739463  -0.32367    3.9687 255 255 255
 0.405532 -0.237292   3.72147 255 255 255
-0.0382803  -0.248011    4.01739 255 255 255
-0.208872 -0.250116   4.12843 255 255 255
-0.389872 -0.202357   4.22578 255 255 255
-1.02401 0.099313  4.56269 255 255 255
-2.17813 0.437039  5.31147 255 255 255
-3.04521 0.769156  5.23718 255 255 255
0.276392 0.569448  3.91185 255 255 255
-2.47877  1.40032  5.11795 255 255 255
-2.98999  1.65502  5.22499 255 255 255
-0.833366   1.14792   3.60445 255 255 255
-2.64482  1.65454  5.16156 255 255 255
-2.61494  1.65582  5.16172 255 255 255
-1.70771  1.43632  4.47885 255 255 255
-2.13608  1.56677  4.87334 255 255 255
-2.26186  1.58391  4.92604 255 255 255
-2.58497  1.92492  5.02336 255 255 255
-0.113308   1.43868    3.5853 255 255 255
-2.3476 2.10217 4.74585 255 255 255
-0.380009   2.04042   3.52693 255 255 255
-0.227849  -1.83295   4.65918 255 255 255
-0.190137  -1.78698   4.62274 255 255 255
 1.17027 -1.32206  3.54605 255 255 255
  1.2895 -1.30964  3.53459 255 255 255
-0.336607  -1.68832   4.68934 255 255 255
 1.34587 -1.14965  3.45315 255 255 255
-1.85327 -1.64946  5.61486 255 255 255
-1.89779 -1.61307  5.61387 255 255 255
-1.86033 -1.61479   5.6136 255 255 255
-1.87338 -1.52432  5.58763 255 255 255
-1.85744  -1.4942  5.57322 255 255 255
0.428981 -1.11064  4.07647 255 255 255
0.527674 -1.02908  3.96023 255 255 255
0.133668 -1.08173   4.2434 255 255 255
0.488163 -1.00243  3.99797 255 255 255
0.312909 -1.01636  4.12149 255 255 255
 0.355777 -0.971221   4.07669 255 255 255
 0.108602 -0.967998   4.22642 255 255 255
0.0976359 -0.945997   4.22423 255 255 255
0.0232545 -0.914191   4.28376 255 255 255
-0.102771 -0.888315   4.35607 255 255 255
-0.145192 -0.869475   4.38553 255 255 255
-0.173904 -0.865165    4.4051 255 255 255
-0.464472 -0.846339   4.58335 255 255 255
-0.416532 -0.819539   4.54904 255 255 255
 -0.70273 -0.775936    4.6942 255 255 255
-0.791954 -0.767385   4.69778 255 255 255
 0.331617 -0.381903   3.80754 255 255 255
 0.321041 -0.365641    3.8054 255 255 255
-0.0684436  -0.349996    4.07494 255 255 255
  -2.5708 -0.413133   5.51031 255 255 255
-0.374823 -0.306645   4.27723 255 255 255
 0.148344 -0.158884   3.85368 255 255 255
-0.387722 -0.115911    4.1921 255 255 255
-0.0230468    0.08149     3.8841 255 255 255
-0.0467109  0.0995692    3.88391 255 255 255
0.151818  0.16317  3.73798 255 255 255
-1.00318   0.3209  3.86514 255 255 255
0.39811 0.49029 3.54145 255 255 255
0.00189035   0.573626    3.77744 255 255 255
 -1.7392 0.939045  4.67108 255 255 255
-1.71112  1.22169  4.55946 255 255 255
-3.01913  1.64044  5.25779 255 255 255
-2.26354  1.54984  4.93554 255 255 255
-2.93489  1.64515  5.19874 255 255 255
-2.25265  1.56852  4.93594 255 255 255
-2.63012  1.64565  5.16531 255 255 255
-2.20509  1.56096  4.90825 255 255 255
-2.45816  1.61371  5.03555 255 255 255
-2.22907  1.57669  4.90704 255 255 255
-2.17216  1.56918  4.88238 255 255 255
-2.63329  1.99245  5.04238 255 255 255
-2.02123  2.11283  4.73389 255 255 255
0.0678424    1.6149   3.37984 255 255 255
-0.352292   2.03849   3.50636 255 255 255
1.61073  -1.343 3.35398 255 255 255
-0.407564  -1.80819    4.7686 255 255 255
 1.28644 -1.34396  3.53592 255 255 255
-0.814839  -1.84423    5.0101 255 255 255
 1.35107 -1.32744   3.5092 255 255 255
 1.48135 -1.29975  3.43568 255 255 255
 1.30201 -1.33009  3.54305 255 255 255
-0.792853  -1.82654   5.00774 255 255 255
 1.37184 -1.30137  3.48284 255 255 255
   1.354 -1.22716  3.47222 255 255 255
0.495935 -1.01787  3.98822 255 255 255
0.511871 -1.00566   3.9857 255 255 255
 0.394041 -0.990087   4.05965 255 255 255
 0.322341 -0.988057   4.10154 255 255 255
 0.326039 -0.966251   4.09981 255 255 255
0.0725253 -0.925121   4.24546 255 255 255
-0.122286 -0.896942   4.37586 255 255 255
-0.0463287  -0.890861    4.34086 255 255 255
-2.90371 -1.24457  6.27146 255 255 255
-0.226979 -0.868172   4.43355 255 255 255
-0.311837 -0.852264   4.48758 255 255 255
-0.367166 -0.842869   4.51752 255 255 255
-0.472838 -0.804926   4.57857 255 255 255
-0.715312 -0.791261   4.69563 255 255 255
-0.738627 -0.769767    4.6999 255 255 255
-0.782986 -0.719515   4.68725 255 255 255
-1.96413 -0.53204  5.50845 255 255 255
0.0448995 -0.332316   3.98539 255 255 255
 -0.22486 -0.262496   4.14132 255 255 255
-0.815075 0.0792967    4.4837 255 255 255
0.350231 0.165735  3.18688 255 255 255
-2.14386 0.312678  5.30497 255 255 255
-0.467903   0.32061    3.4902 255 255 255
-1.76755  0.55164  4.82085 255 255 255
-2.14464 0.620463  5.15607 255 255 255
0.0567039  0.582022   3.74949 255 255 255
-2.17917  1.53536  4.89953 255 255 255
-2.96858  1.66414  5.21676 255 255 255
-0.74401  1.17674  3.63057 255 255 255
-0.411445   1.50179   3.76335 255 255 255
-2.26351  1.93636  4.76565 255 255 255
-0.407346   1.54416    3.0275 255 255 255
-2.29578  2.37687   4.6334 255 255 255
-0.583828   2.06952   3.64536 255 255 255
-0.531452   2.06853   3.60886 255 255 255
-0.327766   2.03079   3.48852 255 255 255
 1.35067 -2.08253  3.52178 255 255 255
 1.62931 -1.35742  3.29949 255 255 255
 1.18489 -1.38468  3.54883 255 255 255
 1.56101 -1.33515  3.39241 255 255 255
 1.47852 -1.33867  3.43669 255 255 255
 1.49526 -1.32414  3.43107 255 255 255
 1.50273 -1.15852  3.36682 255 255 255
 1.16266 -1.16101  3.49148 255 255 255
-2.17788  -1.3756   5.8292 255 255 255
-2.25085 -1.29065  5.81542 255 255 255
-0.053979 -0.912762   4.34823 255 255 255
 -0.27556 -0.857402   4.45057 255 255 255
-0.865641 -0.765226   4.70153 255 255 255
 -2.35753 -0.487527   5.62409 255 255 255
-0.436696 -0.295623   4.27972 255 255 255
-2.71946 0.135128  5.57236 255 255 255
-0.435818  0.217158   3.51439 255 255 255
-0.912254  0.410794     3.956 255 255 255
-2.12237 0.633636   5.1648 255 255 255
-2.81868  1.13138  5.45162 255 255 255
-0.876353   1.16539   3.63437 255 255 255
-2.28787  1.59952  4.93974 255 255 255
-3.01349   1.9907  5.26423 255 255 255
-2.66194  1.95258  5.05537 255 255 255
-0.254594   1.47221   3.67194 255 255 255
-2.19406  1.97793   4.7975 255 255 255
 -2.583 2.06112 5.00155 255 255 255
-2.14166  2.02394  4.85127 255 255 255
-2.37106   2.0229  4.79535 255 255 255
-2.23515  2.08092  4.69511 255 255 255
-0.615417    2.0727   3.66672 255 255 255
-0.511473   2.05459   3.60232 255 255 255
 1.51146 -1.30797  3.41626 255 255 255
 1.57278 -1.28303  3.36488 255 255 255
0.461789 -1.01195   4.0123 255 255 255
 -2.40095 -0.631301   5.66079 255 255 255
-0.0656041 -0.0204274     3.9449 255 255 255
0.445233 0.493668  3.50872 255 255 255
0.315782 0.526106  3.58801 255 255 255
0.0156408  0.589672   3.77435 255 255 255
-3.02945   1.3153  5.37263 255 255 255
-0.235248   1.44916   3.65748 255 255 255
-0.108118   1.44499   3.57916 255 255 255
0.104227   1.3977  3.44603 255 255 255
0.426527  1.32169  3.24638 255 255 255
-2.48631  2.02036  4.91811 255 255 255
-2.03968  2.38099  4.65727 255 255 255
-2.1772 2.34282 4.56516 255 255 255
-2.21617  2.36996  4.58215 255 255 255
-2.49417  2.69801   4.5857 255 255 255
-2.80843   2.8215   4.7788 255 255 255
-1.03235 -1.76964    5.144 255 255 255
-2.56519 -1.24891  6.08908 255 255 255
-0.423001  -0.26721   4.27858 255 255 255
-0.692106 -0.210548   4.42862 255 255 255
-2.63955   1.2114  5.33235 255 255 255
 -2.413 1.56546 5.01038 255 255 255
-3.02396  1.66623  5.25351 255 255 255
-0.350977   2.01343   3.50829 255 255 255
  0.14295 -0.955927   4.21813 255 255 255
 0.108278 -0.366995   3.96381 255 255 255
-0.478224   1.17108   3.89311 255 255 255
 -2.951 1.59845 5.24383 255 255 255
-0.183733    1.4625   3.61205 255 255 255
  1.21348 -0.908118   3.06171 255 255 255
-0.304039 -0.957582   4.50725 255 255 255
 -2.56507 -0.632374   5.58853 255 255 255
-2.4076 1.61973 4.99048 255 255 255
-2.15974  1.60239  4.88985 255 255 255
-2.74972   2.0369  5.10282 255 255 255
0.203669   1.3878  3.39131 255 255 255
-1.13015 -2.06434  4.80861 255 255 255
 -2.46618 -0.662528   5.60086 255 255 255
 -2.47482 -0.543132   5.60537 255 255 255
-3.18364  1.20481  5.34154 255 255 255
-3.20248  1.22571  5.17915 255 255 255
-1.17238 -1.97394  4.89562 255 255 255
-0.902884 -0.717796   4.67239 255 255 255
-3.04803 0.297945  5.74696 255 255 255
-1.44861 0.504283  4.18762 255 255 255
-0.696511  -1.50912   4.84413 255 255 255
0.106403  1.43813  3.46395 255 255 255
-3.04791 -1.66988  6.29657 255 255 255
-2.8254 2.02845 5.65047 255 255 255
-3.06527  1.40556  5.10627 255 255 255
0.409684  1.01333   2.7547 255 255 255
-0.984669  -1.86853   4.84097 255 255 255
-0.974375  -0.11141   4.37304 255 255 255
 0.317634 -0.394291   3.81733 255 255 255
-2.17216  1.56918  4.88238 255 255 255
-0 -0 -0 0 255 0
-0.92033 0.124199   0.3709 0 255 0
