ply
format ascii 1.0
element vertex 252
property float x
property float y
property float z
property uchar red
property uchar green
property uchar blue
end_header
 8.44617 -6.08996  15.2231 255 255 255
 8.11375 -5.02413  16.9142 255 255 255
 6.28029 -4.21295  17.8464 255 255 255
  9.9342 -4.68794  14.6145 255 255 255
  7.1047 -3.67643  17.4899 255 255 255
 5.44745 -2.86013  18.6221 255 255 255
 7.91068 -2.60736  15.1843 255 255 255
 7.92715 -2.56951  14.8514 255 255 255
 8.00139 -2.28782  14.9175 255 255 255
  7.8061 -2.19646   15.188 255 255 255
 7.79625 -1.98336  15.2988 255 255 255
 7.93608 -1.90821  15.2645 255 255 255
   7.8225 -0.525935   14.4325 255 255 255
7.80707 2.26519 14.8747 255 255 255
12.1004 2.15586 13.0414 255 255 255
 8.40216 -6.19631  15.6197 255 255 255
 8.40971 -6.06859  15.3266 255 255 255
 8.49286 -6.04123  15.3035 255 255 255
 7.07853 -4.94944  17.9336 255 255 255
  4.9489 -4.52636  18.6012 255 255 255
 7.81913 -4.88134  17.4998 255 255 255
 6.85604 -4.70902  17.8269 255 255 255
4.98778  -4.333 18.5243 255 255 255
 6.88298 -4.07775  17.6311 255 255 255
 6.21175 -3.66917  17.7469 255 255 255
 6.19887 -3.59723   17.701 255 255 255
 10.0757 -4.52195   14.218 255 255 255
  7.9824 -3.26233  15.7441 255 255 255
 8.06623 -3.36854  15.0509 255 255 255
 7.97619 -3.18132  15.6977 255 255 255
 7.99947 -3.18276   15.418 255 255 255
 7.94916 -3.07911  15.6498 255 255 255
 10.2217 -3.61375  13.3614 255 255 255
 7.96558 -2.34253  15.0899 255 255 255
 7.81976 -2.30759  15.2219 255 255 255
 7.97217 -2.27456  15.0876 255 255 255
7.76259   -2.14 15.2943 255 255 255
 8.00842 -2.18538  14.8494 255 255 255
 7.74841 -2.06623  15.2606 255 255 255
 10.4057 -2.76241   11.349 255 255 255
 9.95884 -2.01394  11.5632 255 255 255
 9.91684 -1.85217  11.7861 255 255 255
7.13303  1.1561 16.1149 255 255 255
7.85217 1.80724 14.4875 255 255 255
7.82938 1.97395 14.8124 255 255 255
7.83261 1.97716 14.6366 255 255 255
7.81698 2.08739 14.9351 255 255 255
 8.41162 -5.90419  15.4182 255 255 255
 8.09678 -5.26186  17.1663 255 255 255
  7.0182 -4.91489  17.9778 255 255 255
 6.87527 -3.95523  17.6317 255 255 255
 6.87579 -3.84799  17.5366 255 255 255
 5.95682 -3.58563  17.8167 255 255 255
 8.10926 -4.01242  16.3489 255 255 255
 10.0626 -4.59672  14.3204 255 255 255
 10.3111 -4.74655     13.3 255 255 255
 10.0089 -4.46066   14.253 255 255 255
 8.11523 -3.68535  16.2424 255 255 255
 8.53204 -3.92552  14.3188 255 255 255
10.3998 -3.9583 12.6136 255 255 255
 7.98293 -3.04836  15.5682 255 255 255
 7.87709 -2.31939  16.0075 255 255 255
 7.93462 -2.07442  15.2603 255 255 255
 7.95149 -2.04966  15.1443 255 255 255
 7.77828 -2.04724  15.0453 255 255 255
 8.68427 -1.64896  13.4794 255 255 255
  7.94076 -0.905729   14.5259 255 255 255
12.1221 2.19229 12.8422 255 255 255
 7.4828 3.52276 13.3773 255 255 255
7.43192 3.55483 13.4328 255 255 255
    8.36 -5.70929  15.3425 255 255 255
 7.27242 -4.81341  17.8198 255 255 255
 8.34266 -4.94974   15.355 255 255 255
 5.91726 -3.60717  17.9389 255 255 255
 12.4862 -4.22825  12.7002 255 255 255
8.01726 -3.2283 15.5169 255 255 255
 12.4116 -3.36413  12.4887 255 255 255
 10.1586 -2.64177  12.0364 255 255 255
  7.98806 -0.891669   14.4331 255 255 255
   7.8409 -0.487289   14.4654 255 255 255
  7.95732 -0.496156    14.309 255 255 255
 5.91623 -4.82367   18.248 255 255 255
 7.79245 -4.81632  17.5881 255 255 255
 7.71753 -4.69429  17.4715 255 255 255
 7.04637 -3.48092  17.4276 255 255 255
 10.5255 -4.28266  12.1666 255 255 255
  8.0015 -3.17357  15.6119 255 255 255
 5.79394 -1.24176   18.105 255 255 255
 7.75175 -1.90605  15.2139 255 255 255
 12.3445 -1.53492  12.2354 255 255 255
   7.80293 0.00227318    14.4826 255 255 255
8.35039 -5.8048 15.7328 255 255 255
 8.05995 -5.29727  17.0027 255 255 255
 10.3112 -4.79009  13.4322 255 255 255
 9.16462 -2.77618   13.522 255 255 255
 7.76585 -1.88713  15.7463 255 255 255
  7.86343 -0.919642   14.7818 255 255 255
   9.6408 -0.192807    11.124 255 255 255
 7.3893 3.70613 13.3525 255 255 255
 8.49813 -6.55442  15.5014 255 255 255
  8.5312 -6.23152  15.4339 255 255 255
   10.85 -4.62017  14.4964 255 255 255
 11.1431 -4.46311   14.323 255 255 255
 7.46277 -2.87856  17.1096 255 255 255
 10.1905 -3.50679  13.0186 255 255 255
 10.2104 -2.78774  12.1161 255 255 255
 9.83476 -2.21501   12.527 255 255 255
 9.12116 -1.22432  12.9701 255 255 255
  9.1636 -0.72193  12.5891 255 255 255
6.19625 2.09969  16.722 255 255 255
6.41637 3.37453 16.5651 255 255 255
 8.43846 -5.81266   15.276 255 255 255
 7.98408 -3.20693  15.8371 255 255 255
 10.4082 -2.66566    11.45 255 255 255
 7.57133 -1.11042  16.2398 255 255 255
 7.27118 0.451016  16.0335 255 255 255
 7.68114 0.205164  15.1001 255 255 255
  8.26432 0.0809738   13.1488 255 255 255
 8.76841 0.120602  12.3883 255 255 255
7.13693 1.35281 16.1047 255 255 255
   8.258 -5.98043   15.502 255 255 255
 5.84918 -3.86996  17.9854 255 255 255
 6.74127 -2.66216  17.9915 255 255 255
 8.02997 -3.22365  15.1289 255 255 255
 7.44578 -0.16995  16.3276 255 255 255
  7.78011 -0.367057   14.5356 255 255 255
  9.33058 -0.924156   12.4491 255 255 255
  7.74404 -0.163886   15.0151 255 255 255
8.37712  -6.396 15.5041 255 255 255
 8.2506 -3.9269 16.1303 255 255 255
9.34347 -1.9258 12.8091 255 255 255
  7.81044 -0.967717   15.4682 255 255 255
 9.08582 -1.55413  13.0535 255 255 255
 7.89742 -1.25391  14.7227 255 255 255
  7.07068 -0.569784   16.7627 255 255 255
 9.42175 -1.38343  12.6943 255 255 255
 7.71439 0.330316  14.4344 255 255 255
8.55444 -3.4622 14.0616 255 255 255
 14.2259 -0.21395  5.52516 255 255 255
 8.40443 -5.03695  16.0447 255 255 255
  8.1778 -3.27506  15.1075 255 255 255
  10.491 -4.33803  12.3225 255 255 255
8.01701 -2.2964 15.9829 255 255 255
 8.11655 -2.58162   14.877 255 255 255
 10.0183 -2.75269  13.2462 255 255 255
 9.65653 -1.41436  11.9664 255 255 255
7.84034 1.78095 14.7684 255 255 255
7.80458  2.2651 14.9354 255 255 255
 8.15786 -5.29805  17.4679 255 255 255
 8.18084 -3.21613  15.7318 255 255 255
 8.17851 -3.24087  15.6555 255 255 255
 7.98412 -3.03352   15.583 255 255 255
 7.92716 -2.62935  15.3541 255 255 255
 8.08164 -2.56105  15.3369 255 255 255
 8.01553 -2.43236  15.3818 255 255 255
 8.14357 -2.56001  14.7884 255 255 255
8.25825 -2.4074 14.6579 255 255 255
7.15455 3.71956 14.1477 255 255 255
7.40216 3.78812 13.3441 255 255 255
 8.14848 -5.97916   15.254 255 255 255
8.32805 -5.0264  17.087 255 255 255
8.15801 -4.9622  17.067 255 255 255
  10.063 -4.66942  14.3815 255 255 255
 10.1206 -4.66671  14.1479 255 255 255
 10.3745 -4.79829   13.187 255 255 255
 8.69898 -3.88285  14.2403 255 255 255
 10.4903 -4.38357  12.1771 255 255 255
  8.0287 -2.10371  14.8499 255 255 255
 10.0018 -2.10952  11.6148 255 255 255
 9.94648 -1.85044  11.4181 255 255 255
  9.58741 -0.804917   11.8994 255 255 255
 7.4111   3.711 13.2229 255 255 255
 8.31006 -5.88317  15.5904 255 255 255
7.77731 -2.8097 17.1251 255 255 255
8.08567 -2.8193 15.6359 255 255 255
10.3998 -3.9583 12.6136 255 255 255
 7.92311 -2.65971  15.1229 255 255 255
 7.78837 -2.28515  15.3588 255 255 255
  7.19681 -0.811712   16.5801 255 255 255
 7.95584 -1.48392  14.7544 255 255 255
 7.8159 -1.0335 15.6924 255 255 255
  7.86821 -0.414658   14.6398 255 255 255
 7.75388 0.100055  14.4548 255 255 255
6.61041 3.38077 16.0103 255 255 255
 7.80713 -4.72673  17.8229 255 255 255
  10.338 -3.85757  13.1325 255 255 255
8.87069 -1.5305 13.2954 255 255 255
  7.79959 -0.558612   15.1793 255 255 255
 7.73245 0.645957  14.4429 255 255 255
8.40868 0.28971 12.9172 255 255 255
 8.17768 -6.04271  15.2841 255 255 255
8.23228 -5.7831 15.6812 255 255 255
8.28462 -5.0978 17.0774 255 255 255
  10.127 -4.66442  14.2209 255 255 255
 8.25929 -3.68002  15.0133 255 255 255
 9.24713 -1.12743  12.7614 255 255 255
 7.71074 0.100522  14.7705 255 255 255
10.4305 -4.4553 13.1602 255 255 255
  7.85499 -0.917735   14.7861 255 255 255
 7.88926 -2.82553   17.328 255 255 255
 7.94622 -4.92737  17.7785 255 255 255
8.01241 -3.3354 16.1136 255 255 255
  9.35624 -0.149298   11.7789 255 255 255
6.44631 3.46609 16.3239 255 255 255
 8.40433 -5.82689  14.8675 255 255 255
 10.4015 -4.34854  13.5134 255 255 255
 10.0211 -2.58499  12.8534 255 255 255
 9.61408 -1.08993  12.2003 255 255 255
 8.36939 -4.29587  15.3725 255 255 255
  7.9553 -2.99609  15.8816 255 255 255
 7.81092 -2.06936  15.5595 255 255 255
 8.39471 -1.71588  13.7361 255 255 255
7.87043 1.73238 14.3934 255 255 255
 7.97514 -2.43507  15.0797 255 255 255
  7.9846 -2.25207  15.0038 255 255 255
 8.00024 -2.22272  14.9674 255 255 255
5.02625 2.16804 17.2758 255 255 255
 10.9521 -3.91586  14.2839 255 255 255
 4.44834 -4.45881  18.2947 255 255 255
 6.7235 2.26441  16.439 255 255 255
7.77663 2.28528 15.0416 255 255 255
  7.95022 -0.734637   14.7619 255 255 255
7.82619 2.17309 14.6804 255 255 255
  12.374 -4.02139  12.7733 255 255 255
 9.56226 -1.72381  12.8883 255 255 255
7.83346 1.85412   14.75 255 255 255
 7.95043 -2.60706  14.4301 255 255 255
 7.96253 -2.21422  15.0743 255 255 255
 8.51632 -2.06101  13.1569 255 255 255
 8.71161 -1.99574   13.059 255 255 255
 7.0951 1.23059 16.1969 255 255 255
8.52108 -2.1965 13.2809 255 255 255
  8.7743 -2.04361    13.05 255 255 255
  8.5025 -2.12821  13.3458 255 255 255
  8.40226 -0.873335   13.0661 255 255 255
  8.6597 0.216686  12.8192 255 255 255
 8.63791 0.225101  12.8759 255 255 255
6.64131 2.10288 16.7916 255 255 255
 8.57796 -1.88544  13.2101 255 255 255
  8.55265 -0.859754   13.1017 255 255 255
 8.45995 -1.95735  13.4349 255 255 255
  8.45162 -0.829454   13.2811 255 255 255
 7.96198 -1.68236  14.1998 255 255 255
   8.098 0.644831  12.9325 255 255 255
8.20629 2.55883 12.8545 255 255 255
-12.3138 -3.45774  2.46756 0 255 0
-26.9831 -6.70891 0.241775 0 255 0
 -11.869 -7.56658  9.61581 0 255 0
 2.29019 -1.97686  1.77373 0 255 0
  0.5688 -1.45034  2.18463 0 255 0
-0.286717  -1.84308   1.86978 0 255 0
 1.64704 -1.81837 0.738775 0 255 0
