ply
format ascii 1.0
element vertex 519
property float x
property float y
property float z
property uchar red
property uchar green
property uchar blue
end_header
 6.81407 -2.24395  18.7913 255 255 255
 6.70718 -1.62186  19.6541 255 255 255
7.01711    4.27 17.6449 255 255 255
6.91752 5.27389 18.8898 255 255 255
 6.69115 -2.33321  19.0699 255 255 255
 6.69096 -2.21331  19.0159 255 255 255
 6.90085 -2.08764  18.8145 255 255 255
6.93756 4.41116 17.8926 255 255 255
6.91441 4.77479 18.6922 255 255 255
 6.9217 4.72402 18.2593 255 255 255
6.86637 4.96489 18.8919 255 255 255
7.08572 6.04976 16.9426 255 255 255
 6.80666 -1.87485  19.5849 255 255 255
 12.0486 -6.89294  19.2976 255 255 255
 12.8429 -6.76155  19.4175 255 255 255
6.90284 4.43489 18.5442 255 255 255
6.87642 5.26172  18.935 255 255 255
6.99411 4.28938 17.7558 255 255 255
 15.2897 -3.12863   16.917 255 255 255
 6.81791 -2.20065  19.1092 255 255 255
 15.8846 -6.63664   18.401 255 255 255
 13.9847 -5.10771  18.7659 255 255 255
   14.31 -4.16784  17.5478 255 255 255
  15.487 -5.81689  18.1454 255 255 255
12.0691 -5.5303 18.5772 255 255 255
 14.2389 -5.34038  18.6545 255 255 255
  13.827 -5.17484  18.5432 255 255 255
 15.7395 -4.60374  17.9378 255 255 255
6.82724 5.33029 19.1972 255 255 255
 15.2689 -7.70235  19.2454 255 255 255
13.3944 -6.8168 19.6108 255 255 255
 15.6818 -6.43161  18.4928 255 255 255
 15.6767 -6.36772  18.5964 255 255 255
 15.4927 -5.92102  18.2688 255 255 255
 14.1093 -5.08044  18.0123 255 255 255
 14.1667 -7.48501  19.1789 255 255 255
 15.1072 -7.11787  18.9676 255 255 255
6.89849 5.02562 18.2816 255 255 255
13.0125 -5.4648 18.9911 255 255 255
  12.296 -5.63053  18.9691 255 255 255
 13.8112 -7.66509  19.3434 255 255 255
 12.8208 -5.40078  18.8255 255 255 255
  12.289 -6.70913  19.4767 255 255 255
   12.12 -6.53182  19.1322 255 255 255
 12.0839 -6.45683  19.1248 255 255 255
 12.0322 -6.36246  19.0745 255 255 255
 12.1992 -5.98348  19.1763 255 255 255
 12.2839 -5.77606  19.2364 255 255 255
 12.1238 -5.25691   18.372 255 255 255
 12.1489 -5.19161  18.4975 255 255 255
 12.7692 0.156689  16.2303 255 255 255
 11.2473 -7.13628  19.8907 255 255 255
  11.618 -5.81999  19.3979 255 255 255
 12.7328 -5.90997  18.8083 255 255 255
  15.721 -6.50048  18.4223 255 255 255
 10.5122 -1.58042   16.534 255 255 255
 11.9453 -1.84675  16.4673 255 255 255
 13.7084 -1.63296  16.1565 255 255 255
 12.8319 0.361277  15.7906 255 255 255
  11.106 -6.58362  19.6949 255 255 255
 12.1724 -6.93393  19.1603 255 255 255
 11.4289 -6.02196  19.3141 255 255 255
 12.2428 -6.28543  18.9475 255 255 255
 12.2357 -5.91559  18.8774 255 255 255
 13.9243 -5.15464  18.4703 255 255 255
13.1924 -3.4222  17.945 255 255 255
  13.319 -3.33885  18.0013 255 255 255
 15.8923 -4.76517  17.7403 255 255 255
 13.7438 -3.23511  17.9136 255 255 255
 11.8477 -1.77228  16.4229 255 255 255
 13.9775 -2.58556  16.7879 255 255 255
 13.6636 -1.56995  16.2041 255 255 255
13.4742  -1.474 16.0704 255 255 255
 12.7727 0.361423  15.8311 255 255 255
 10.5759 -6.95058  19.5243 255 255 255
  11.149 -6.93832  19.6519 255 255 255
 11.2599 -6.24994  19.3738 255 255 255
 11.4439 -5.38014  19.1272 255 255 255
 9.72201 -4.10777  17.8565 255 255 255
 9.77601 -4.05173  17.7613 255 255 255
 12.3627 -5.25398  18.6198 255 255 255
  11.564 -1.44527  16.2125 255 255 255
  14.0785 -0.799996   16.0091 255 255 255
 12.5341 0.254035  16.2598 255 255 255
12.7024 0.18082 16.2568 255 255 255
 9.72107 -6.42297  19.9375 255 255 255
 12.1878 -6.01673  18.7565 255 255 255
 13.1196 -3.47286  18.1397 255 255 255
  12.5761 0.0958805   16.2905 255 255 255
   12.67 0.340404  16.1958 255 255 255
 11.6843 -7.21838  18.1188 255 255 255
 14.1598 -1.02147  15.8841 255 255 255
 9.43932 -7.10019   19.879 255 255 255
 13.8586 -7.52969  19.3001 255 255 255
 14.519 -7.3684  19.509 255 255 255
 14.1015 -5.11255  18.7476 255 255 255
 13.4331 -3.43513  17.9144 255 255 255
13.8437 -2.2038 16.5584 255 255 255
 13.3432 -7.54655  19.2948 255 255 255
13.9523 -3.0756 17.1766 255 255 255
11.6761 -1.7421 16.4666 255 255 255
  12.8412 0.0267018   16.1923 255 255 255
 13.7102 -6.23993  18.7712 255 255 255
 6.59679 -4.15049  20.0866 255 255 255
 6.73125 -2.92336  19.0425 255 255 255
 6.87027 -2.84907  19.2793 255 255 255
 6.81356 -2.76679  19.3803 255 255 255
6.71519 -2.7413 19.2919 255 255 255
 6.77451 -2.49808  18.8324 255 255 255
 6.68815 -2.63111  19.8848 255 255 255
 6.77788 -2.49043  19.6788 255 255 255
  6.7531 -2.42883  19.1574 255 255 255
 6.41012 -2.51245  20.0675 255 255 255
 6.67583 0.413183  20.6105 255 255 255
6.71491  1.4367 19.8818 255 255 255
 6.7361 2.01677 20.2206 255 255 255
6.95959 4.27339 18.1852 255 255 255
6.90718 4.66798 19.3288 255 255 255
6.90248 4.55237 18.5124 255 255 255
6.92519 4.53348 18.4311 255 255 255
7.02623 4.39904 17.8393 255 255 255
6.83982 4.72822 19.1833 255 255 255
6.90576 4.98546 18.4953 255 255 255
7.14828 4.61065 16.9384 255 255 255
7.18885 5.17116 16.8163 255 255 255
7.05045 7.98732 18.1436 255 255 255
 7.2271 7.46049 16.1341 255 255 255
7.16019  11.159 16.3217 255 255 255
-5.78806 -12.6673  21.0783 255 255 255
 8.43063 -4.34782    17.33 255 255 255
 6.35959 -3.96548   20.275 255 255 255
 6.63381 -3.53105  19.8161 255 255 255
 6.54668 -3.34649  19.1877 255 255 255
 6.63473 -3.39962  20.1809 255 255 255
 6.29163 -3.64109  21.7238 255 255 255
 6.74823 -2.85097   18.438 255 255 255
 6.59598 -2.66112  17.2584 255 255 255
 6.64874 -2.64656  17.5472 255 255 255
   6.848 -2.80456  18.7548 255 255 255
 6.86021 -2.73602  18.6375 255 255 255
 6.88277 -2.79489  19.1507 255 255 255
 6.70966 -2.87722  19.9314 255 255 255
 6.86625 -2.64622  18.6944 255 255 255
6.78002 -2.5938 18.7256 255 255 255
 6.6659 -2.7503 19.8818 255 255 255
6.78342 -2.5596 19.0149 255 255 255
 6.52216 -2.90007  21.4945 255 255 255
 6.82023 -2.45621  18.8419 255 255 255
 6.59249 -2.44631  18.7367 255 255 255
  6.5498 -2.66371  21.2964 255 255 255
 6.74117 -2.40349  19.4659 255 255 255
 6.58207 -2.54203  20.3699 255 255 255
 6.48591 -2.45457  20.2906 255 255 255
 6.81791 -2.20065  19.1092 255 255 255
 6.53876 -2.21124  19.9963 255 255 255
 6.42608 -2.26446  21.1651 255 255 255
6.80077 -2.0401 20.6761 255 255 255
 6.53326 -1.72858  20.8849 255 255 255
 6.79393 -1.50138  19.4021 255 255 255
6.58121 -1.3162 20.9565 255 255 255
  8.34161 -0.934195   18.0843 255 255 255
  6.8711 -1.03638  18.3327 255 255 255
   6.6935 -0.912509   21.0154 255 255 255
6.96295 0.67824 18.0436 255 255 255
 6.95667 0.746629  18.2448 255 255 255
6.89758 1.45378 17.9185 255 255 255
7.09243 1.62228 17.5513 255 255 255
 6.9262 1.80232 18.6532 255 255 255
8.16304 1.84145 17.4291 255 255 255
8.47285 1.91516 17.0739 255 255 255
9.75827 3.85462 17.1345 255 255 255
7.02386  3.9659 17.8006 255 255 255
7.07464 4.09053 17.7159 255 255 255
 6.9428 4.39855 18.5173 255 255 255
6.88808 4.46686 18.6858 255 255 255
6.81935 4.61489 19.3084 255 255 255
6.96098 4.39812 18.1288 255 255 255
7.00147 4.51926 18.4778 255 255 255
6.92371 4.82327 18.4237 255 255 255
 6.8768 5.02444 19.1312 255 255 255
6.83592 5.31279 18.7068 255 255 255
 6.8443 5.24908 18.2882 255 255 255
6.72031 5.67437 19.1026 255 255 255
6.99931 5.00256 16.6104 255 255 255
 7.0867 8.08123 17.9906 255 255 255
7.20233 7.48458 16.2003 255 255 255
7.25485 8.34234  15.429 255 255 255
7.17908 9.86132 16.3643 255 255 255
 7.2727 9.96513 15.6542 255 255 255
7.26082 9.93442 15.3194 255 255 255
7.25111 9.84321 15.1841 255 255 255
7.24876 10.4879 15.4225 255 255 255
7.18692 11.2605 16.5105 255 255 255
7.24604 10.9873 16.0397 255 255 255
 6.48474 -7.76447  18.9727 255 255 255
 11.9954 -6.54724  18.9646 255 255 255
 12.2212 -6.36647  19.0545 255 255 255
  8.2589 -7.32812  20.1161 255 255 255
 12.1765 -5.72825  19.0251 255 255 255
 12.2455 -5.12908  18.5258 255 255 255
 7.94535 -4.91935  18.5862 255 255 255
 6.45993 -6.09943   22.339 255 255 255
 8.44439 -4.22233   17.294 255 255 255
  6.6147 -4.88944   21.989 255 255 255
 6.57857 -3.97561  20.1575 255 255 255
 6.55007 -4.00529  20.6145 255 255 255
 6.48893 -4.20101  21.7852 255 255 255
  6.5002 -3.79619  20.2665 255 255 255
 6.60211 -3.69893  19.9042 255 255 255
   9.325 -2.81168  17.1953 255 255 255
 6.52279 -3.59576  20.1712 255 255 255
 6.86222 -3.46855   19.806 255 255 255
 6.60893 -3.54581  20.1264 255 255 255
 6.60986 -2.91477  17.5889 255 255 255
 6.62921 -3.27588   20.224 255 255 255
 6.84711 -2.86397  18.9659 255 255 255
 6.48348 -2.98104  20.1399 255 255 255
 6.91834 -2.73314  19.0536 255 255 255
 6.80085 -2.86267  19.9873 255 255 255
  6.6535 -2.93282  21.2156 255 255 255
 6.82903 -2.74581  20.1525 255 255 255
 6.59363 -2.34454  17.3111 255 255 255
 8.31614 -1.93932  16.1661 255 255 255
 6.73268 -2.55154  19.4655 255 255 255
 8.85945 -1.89545  16.3934 255 255 255
10.8834 -1.6796 16.9334 255 255 255
 9.06874 -1.82996  16.9145 255 255 255
 6.61774 -2.41631   19.544 255 255 255
 6.75745 -2.24164  19.8244 255 255 255
 6.90085 -2.08764  18.8145 255 255 255
 6.75679 -2.16768  19.6073 255 255 255
 6.49549 -2.33862  21.6914 255 255 255
 6.72741 -2.04159  19.6333 255 255 255
6.73333 -1.9958 19.3797 255 255 255
 6.57225 -1.94575  19.6097 255 255 255
 9.15145 -1.32833  16.7771 255 255 255
 6.63025 -1.75887  19.6247 255 255 255
 9.90242 -1.05276  16.4728 255 255 255
 6.77263 -1.44805  19.5076 255 255 255
  10.0855 -0.873391   16.5889 255 255 255
 10.1126 -0.83674  16.7425 255 255 255
  11.3504 -0.695305   17.0072 255 255 255
  6.66952 -0.157417   20.6796 255 255 255
  6.50832 -0.107018   20.8766 255 255 255
  6.95896 0.0573529   18.0931 255 255 255
 6.55439 0.313346  19.4728 255 255 255
 6.79814 0.550243  20.9629 255 255 255
6.97374 1.34673 18.2045 255 255 255
7.00227 1.46125 18.6431 255 255 255
6.96136 1.72156  19.191 255 255 255
8.56218 1.86768 17.1628 255 255 255
6.71056  2.3518 19.5077 255 255 255
6.73904 3.36237 19.6104 255 255 255
9.76661 3.84326 17.0374 255 255 255
7.08145 4.38547 18.2128 255 255 255
6.84325 4.84124 19.1666 255 255 255
6.94941 4.70642  18.581 255 255 255
 6.8265 4.79686 18.8341 255 255 255
8.67153 4.45583 17.2967 255 255 255
7.00189 4.58055 17.8833 255 255 255
6.90548 4.73604 17.7766 255 255 255
7.07923 4.64236 16.6229 255 255 255
6.74799 4.39637 15.1997 255 255 255
7.20699 4.99186 16.8379 255 255 255
7.16525 5.17237 16.9028 255 255 255
6.91733 6.37051 18.9813 255 255 255
7.17452 7.16868 16.0683 255 255 255
 7.2303 7.44886 16.2776 255 255 255
7.19211 9.31887  17.773 255 255 255
7.31863 8.59613 16.0769 255 255 255
8.83516 8.02273 13.8434 255 255 255
7.15038 10.4206  17.099 255 255 255
 7.1325 10.5029  16.395 255 255 255
7.11812 10.6288 16.5089 255 255 255
7.30028 10.0534 15.6139 255 255 255
7.33487 10.0797 15.1304 255 255 255
7.33908 10.2135 15.2489 255 255 255
 6.25605 -8.67142  19.5406 255 255 255
 6.43526 -8.41531  19.2839 255 255 255
 6.53937 -8.26161  19.7827 255 255 255
 8.05546 -7.70912  20.3495 255 255 255
 8.22069 -7.69739  20.3641 255 255 255
 11.8798 -6.60864  19.6053 255 255 255
 7.48675 -4.84563  17.2167 255 255 255
 7.08193 -4.74592  17.8265 255 255 255
 6.55274 -5.44933  21.9547 255 255 255
 6.56912 -4.80689  22.2135 255 255 255
 6.27512 -3.93785  22.0885 255 255 255
  8.2203 -2.15787  16.9436 255 255 255
 8.51174 -1.93146   17.129 255 255 255
 10.1496 -1.73765  16.9124 255 255 255
 6.68504 -2.26599  18.7659 255 255 255
 6.61362 -2.09518  19.5386 255 255 255
 6.70649 -1.30145  17.2084 255 255 255
  9.87988 -0.959413   17.0425 255 255 255
 8.29433 -1.13926   18.174 255 255 255
  10.8579 -0.750199   16.3189 255 255 255
 11.2904 -0.67976  17.0734 255 255 255
   11.372 -0.356724   17.0595 255 255 255
  10.0619 -0.286208    16.424 255 255 255
  6.5903 -0.26346  20.5522 255 255 255
 6.83045 0.495804  18.4388 255 255 255
 6.84589 0.561852  18.2477 255 255 255
 6.86791 0.698244  19.2894 255 255 255
    6.95 0.786591  19.3254 255 255 255
 6.73129 0.959155  20.3484 255 255 255
  6.7109 0.905525  19.1423 255 255 255
6.88991 1.71856 18.7394 255 255 255
7.23986 2.33327 18.4258 255 255 255
6.87245 2.88494 19.6366 255 255 255
9.57872 4.08295 17.1201 255 255 255
6.80568 4.83565 19.3362 255 255 255
6.95678 4.98931 18.0428 255 255 255
6.80557 5.44638 19.0978 255 255 255
8.86892 4.86946 16.8933 255 255 255
7.29826 7.39069 16.3678 255 255 255
8.48732 6.56755 14.4025 255 255 255
7.03553 8.06619 17.4667 255 255 255
8.51426 6.90094 14.4028 255 255 255
7.01842 8.97808 16.4678 255 255 255
7.25855 8.36541 14.9648 255 255 255
7.22779 9.20339 15.9756 255 255 255
7.28656 9.27725 15.4325 255 255 255
 7.1381 10.3769 16.8613 255 255 255
7.16472 11.2476 16.5996 255 255 255
7.50043 12.2539 15.8201 255 255 255
 6.37151 -8.65533  19.0215 255 255 255
 6.47513 -8.64884  19.3939 255 255 255
  9.6802 -6.40217  19.8131 255 255 255
 6.59927 -6.18635  19.1668 255 255 255
 8.72706 -4.89493  17.4358 255 255 255
 6.08394 -6.60212  22.3384 255 255 255
 8.94488 -4.33948  17.3562 255 255 255
 6.56639 -3.80661  20.1243 255 255 255
  9.0389 -2.81246  16.7947 255 255 255
 6.60974 -3.19602  17.9907 255 255 255
 10.0911 -2.24279  17.4722 255 255 255
 7.90555 -2.58481  18.1443 255 255 255
 9.99275 -2.18196  17.0319 255 255 255
 6.81368 -2.97002  20.3457 255 255 255
8.34744  -2.184 16.4989 255 255 255
9.02952 -1.9991 16.5087 255 255 255
 10.6837 -1.90149  17.0957 255 255 255
 8.31613 -2.07099  16.6308 255 255 255
 6.86939 -2.20902  18.6339 255 255 255
 6.93817 -1.95635  18.8486 255 255 255
 6.59432 -1.32421  17.1738 255 255 255
  11.2453 -0.677268   17.4129 255 255 255
  10.2267 -0.551284   16.5665 255 255 255
  6.83815 -0.922598   18.3731 255 255 255
 6.60989 -1.02932  20.9007 255 255 255
  8.10938 0.0313448   15.7834 255 255 255
 9.88127 0.201745  16.0301 255 255 255
 6.78752 0.570552  19.1252 255 255 255
 8.8738  1.7802 15.8385 255 255 255
8.84546 1.80343 15.9655 255 255 255
 9.9774 1.86041 15.5967 255 255 255
9.44831 4.24464 17.1556 255 255 255
9.06107 4.30514 17.3034 255 255 255
9.61399 4.30245 17.2344 255 255 255
8.95756 4.33398 17.2936 255 255 255
7.01355 4.47744 17.6359 255 255 255
9.45449 4.37809 17.1121 255 255 255
9.63307 4.43873 17.1813 255 255 255
8.81586  4.5477 17.0961 255 255 255
9.65103 4.60845 17.1525 255 255 255
6.97654 4.73803 17.7101 255 255 255
9.65475 4.76718 17.1042 255 255 255
8.82446 5.01385 16.9176 255 255 255
6.87146 4.65191 15.4841 255 255 255
7.31494 7.50727 16.3684 255 255 255
8.56506 6.71021 14.6853 255 255 255
7.23465 7.60709  16.304 255 255 255
6.98146 9.60433  17.868 255 255 255
7.21902  9.0999  16.928 255 255 255
7.05198 9.24575 17.0719 255 255 255
7.19719 8.85971 16.1171 255 255 255
7.09559 9.21363 15.8836 255 255 255
7.40543 9.33906  16.127 255 255 255
7.18482 9.79216 16.4735 255 255 255
7.14353 9.94974 16.6687 255 255 255
7.44645 9.45662  15.118 255 255 255
7.19773 10.8167  16.822 255 255 255
7.33775 10.3739  15.653 255 255 255
  7.314 10.1248 15.2518 255 255 255
6.92845 11.1738 16.5954 255 255 255
6.96803 12.6963 16.6488 255 255 255
7.05885 10.2217 13.3646 255 255 255
 6.48847 -8.93223  19.2585 255 255 255
  6.7703 -3.60009  19.5314 255 255 255
 8.26385 -2.00366  16.9712 255 255 255
 8.56998 -1.68586  16.5689 255 255 255
 9.21237 -1.23517  16.7944 255 255 255
8.59878 0.03799 16.3517 255 255 255
   6.85375 0.00976334    18.7187 255 255 255
 6.93889 0.206635  18.2773 255 255 255
 8.66666 0.418354  17.5464 255 255 255
 6.79564 0.449956  18.6929 255 255 255
 6.76619 0.684882  19.4667 255 255 255
8.71196 1.33211 17.2244 255 255 255
6.90274 1.62936 17.9551 255 255 255
6.65521 2.34003 16.3806 255 255 255
8.82151 4.42592 17.1415 255 255 255
9.21668 4.46719 17.2603 255 255 255
6.86345 4.00933  15.442 255 255 255
9.19393 4.83488  17.056 255 255 255
8.83244 4.84873  17.017 255 255 255
6.93372 6.29809 14.9837 255 255 255
 7.3353 7.98242 18.3861 255 255 255
7.03238  8.1867 17.4575 255 255 255
8.63462 6.88118 14.5841 255 255 255
7.20089 8.79643 16.2643 255 255 255
7.12835 8.83721 15.1334 255 255 255
7.08437 9.88935   16.86 255 255 255
7.09386  10.532 17.0796 255 255 255
 6.44724 -8.48667  20.2423 255 255 255
 6.67799 -2.59586  20.1302 255 255 255
 8.25856 -1.78452  16.8349 255 255 255
 6.40054 -0.65919  21.0671 255 255 255
  6.41835 -0.439101   21.0138 255 255 255
 8.34127 0.103397  16.5512 255 255 255
  7.02586 0.0767662   18.1512 255 255 255
 6.8154 2.14156 19.5825 255 255 255
6.71679 2.16504 18.7084 255 255 255
6.46386  3.7948 19.5754 255 255 255
9.23228 4.15704 17.3052 255 255 255
7.26822 7.68153 16.1311 255 255 255
 7.9715 10.2656 17.3505 255 255 255
7.20452 9.71353 16.1545 255 255 255
7.34382 9.49195 14.9354 255 255 255
7.35823 10.6637 15.3212 255 255 255
7.56677 12.4537 16.7077 255 255 255
 6.46031 -9.59054  19.6047 255 255 255
 6.55168 -8.42418  19.3071 255 255 255
 6.60835 -4.75803  18.7658 255 255 255
 8.12425 -3.27765  18.0638 255 255 255
 6.28195 -3.75945  19.9289 255 255 255
  6.7511 -1.66233  19.3567 255 255 255
 6.72313 -1.40328   18.298 255 255 255
 6.52039 -1.53012  20.8631 255 255 255
  6.68723 -0.737594     20.93 255 255 255
 6.55026 0.497594  19.2624 255 255 255
6.78548 1.83151 18.5089 255 255 255
6.73728 2.55429 19.8529 255 255 255
 6.5014 4.11387  19.563 255 255 255
6.60487 4.72609 19.6473 255 255 255
9.06272 4.29532 17.6207 255 255 255
6.54367 4.97995 19.3736 255 255 255
8.46687 4.58982 17.0934 255 255 255
6.48682 5.22812 19.0625 255 255 255
6.88931 5.69409 19.1614 255 255 255
6.59162 5.85341 19.1195 255 255 255
6.54299 7.88441 18.2551 255 255 255
6.57989  8.2348 18.2298 255 255 255
6.65993 8.63494 18.3345 255 255 255
6.66127  8.9277 18.2127 255 255 255
  7.142 7.64449 15.1102 255 255 255
7.01803 9.40341 17.8834 255 255 255
6.61008 9.46809 17.8822 255 255 255
 7.0754 7.87788 14.8598 255 255 255
7.08397 10.1463 17.8079 255 255 255
6.65345  10.375 17.6053 255 255 255
7.10861 9.88011 16.0486 255 255 255
7.03612 11.3981  17.116 255 255 255
7.29988 10.8534 15.7392 255 255 255
 6.41581 -8.69391  19.9601 255 255 255
-6.56182 -8.63041  20.1249 255 255 255
 6.36872 -4.11879  21.9353 255 255 255
 10.2311 -1.87698  16.9753 255 255 255
  10.1922 -0.960289    16.598 255 255 255
 6.77475 -1.18574  16.9884 255 255 255
 6.68093 -1.13381  17.6385 255 255 255
 8.41976 -0.81487  17.9394 255 255 255
9.80107 1.78144 16.0466 255 255 255
9.34168 2.00368  15.878 255 255 255
 7.0489  4.2875 16.2929 255 255 255
7.08697 4.52362 17.1797 255 255 255
6.96219 4.82242 15.8523 255 255 255
8.47369  5.1833   14.83 255 255 255
6.62096 7.10217   18.71 255 255 255
6.90433 9.65426 17.6069 255 255 255
7.13338 9.91746 17.2461 255 255 255
 6.9511  11.661 16.8878 255 255 255
 6.48396 -3.12878  17.9386 255 255 255
  9.96544 -0.986761   16.7601 255 255 255
 6.44079 -1.07346  20.9283 255 255 255
    9.85092 -0.00587517     16.7402 255 255 255
6.74409 1.59305 19.6672 255 255 255
 6.9113 1.72154 18.6185 255 255 255
7.15727 7.54451 18.7802 255 255 255
7.39884 8.97589 16.8951 255 255 255
  6.4289 -9.28645  19.5645 255 255 255
 6.71896 -5.33422  21.4833 255 255 255
 7.75147 -4.10244  18.1277 255 255 255
 9.49233 -1.22477  16.5634 255 255 255
    6.68301 -0.00134681     19.9711 255 255 255
8.24109 1.71063 17.2643 255 255 255
7.03214 4.26849 19.3758 255 255 255
6.99335 4.46605 18.1787 255 255 255
7.18141 5.57853 17.3113 255 255 255
6.86743 5.97262 18.3128 255 255 255
7.04709 6.70382 15.6588 255 255 255
-5.97728 -7.99822  19.6369 255 255 255
 6.49563 -3.53241  20.8414 255 255 255
 6.56129 -1.65515  20.1905 255 255 255
  6.58321 -0.375221   18.0911 255 255 255
8.71264 1.64533 16.1538 255 255 255
6.79369 3.60705 17.1568 255 255 255
6.90504 5.80472 14.5631 255 255 255
7.14568 10.5936 16.1115 255 255 255
7.02671 2.46496 19.0193 255 255 255
7.00212 5.09674  19.354 255 255 255
7.07291 7.83839 16.8388 255 255 255
  6.10357 -0.639041   20.6401 255 255 255
7.34058 2.34815 14.7088 255 255 255
7.67592 5.17854 14.6922 255 255 255
0 0 0 0 255 0
  1.22013 -0.974841 -0.479905 0 255 0
  0.50118  -0.34805 -0.850778 0 255 0
