ply
format ascii 1.0
element vertex 108
property float x
property float y
property float z
property uchar red
property uchar green
property uchar blue
end_header
 8.22269 -8.79295  16.3298 255 255 255
 7.57686 -7.40224  18.5292 255 255 255
 5.32941 -6.19595  19.8576 255 255 255
 6.24975 -5.51139   19.288 255 255 255
  4.2506 -4.35944  20.8661 255 255 255
 7.88081 -3.49376  15.9678 255 255 255
  7.7834 -3.00546   16.443 255 255 255
7.81578 2.70847 16.0013 255 255 255
13.9126 2.34673 13.7982 255 255 255
 8.16667 -8.96768    16.87 255 255 255
  8.1761 -8.76923  16.4699 255 255 255
8.27711 -8.7396 16.4352 255 255 255
 6.28093 -7.27437  19.9553 255 255 255
 3.64583 -6.55463  20.8742 255 255 255
 7.18343 -7.21751  19.3306 255 255 255
 6.01137 -6.91691   19.811 255 255 255
  3.7073 -6.29157  20.7755 255 255 255
 6.03858 -6.04835   19.529 255 255 255
 5.22538 -5.44539  19.7003 255 255 255
 5.21099 -5.34473  19.6367 255 255 255
 7.81282 -3.58842  16.1985 255 255 255
 7.81831 -3.49271  16.1791 255 255 255
7.90149 -3.3454 15.8753 255 255 255
6.71693 1.19572 17.5222 255 255 255
7.89112 2.12735 15.4719 255 255 255
7.84211 2.32626 15.9104 255 255 255
7.86168 2.34201 15.6804 255 255 255
7.81354 2.46875  16.065 255 255 255
 8.14046 -8.54618  16.5751 255 255 255
7.55674 -7.7428 18.8807 255 255 255
 6.19776 -7.22291  20.0121 255 255 255
 6.01571 -5.88022  19.5205 255 255 255
 6.00282 -5.72688  19.3789 255 255 255
 4.93015 -5.31815  19.8092 255 255 255
 7.39699 -5.97732  17.6513 255 255 255
 7.30605 -5.52717  17.4513 255 255 255
 7.76451 -3.23072  16.4185 255 255 255
 7.81212 -3.18849  16.2902 255 255 255
13.9734 2.41177 13.5413 255 255 255
 8.05895 -8.26782  16.4632 255 255 255
 6.50776 -7.09552  19.7852 255 255 255
 7.87847 -7.21739  16.3989 255 255 255
 4.86449 -5.34952  19.9678 255 255 255
 14.0841 -6.46929  12.7947 255 255 255
 14.1326 -5.22302  12.5409 255 255 255
 4.85341 -7.02047  20.4061 255 255 255
 7.12935 -7.12862  19.4414 255 255 255
 7.03852 -6.94677  19.2809 255 255 255
 6.15713 -5.23789  19.1875 255 255 255
   4.461 -2.14637  20.0394 255 255 255
 14.3702 -2.57558  12.2994 255 255 255
 8.04158 -8.42711  16.9929 255 255 255
 7.52712 -7.77716  18.6636 255 255 255
 8.31954 -9.46036  16.7268 255 255 255
8.32039 -9.0101 16.6119 255 255 255
 11.6731 -6.94913  15.3303 255 255 255
  12.105 -6.74128  15.0947 255 255 255
 6.50489 -4.44931  18.6387 255 255 255
5.38319 2.48827 18.2249 255 255 255
 8.16549 -8.41206  16.3767 255 255 255
6.72817 1.46149  17.506 255 255 255
 7.97688 -8.64616  16.7058 255 255 255
 4.77737 -5.69904  20.0343 255 255 255
 8.15888 -9.22987  16.7266 255 255 255
 7.51492 -5.85937  17.3206 255 255 255
  11.4835 -0.967689   1.55187 255 255 255
 7.92833 -7.38336  17.3235 255 255 255
7.85088 2.07334 15.8398 255 255 255
7.80444 2.70296 16.0748 255 255 255
7.92403 2.03428 15.3526 255 255 255
 7.81784 -3.71381  16.1771 255 255 255
 7.85083 -3.45358  16.0813 255 255 255
 7.87699 -3.40993  16.0333 255 255 255
3.68969 2.61972 18.7741 255 255 255
  11.853 -5.94523  15.0631 255 255 255
 2.24857 -6.45268  19.9067 255 255 255
6.15796 2.68682 17.9258 255 255 255
7.75658 2.72452 16.2107 255 255 255
  7.9056 -1.33171  15.7781 255 255 255
7.85424   2.598 15.7419 255 255 255
 14.0108 -6.16784  12.9266 255 255 255
 10.1049 -2.60913  13.2272 255 255 255
7.84593  2.1721 15.8185 255 255 255
  7.8294 -3.86818  15.2955 255 255 255
 7.81598 -3.40735  16.1756 255 255 255
 8.73898 -3.01469  13.6496 255 255 255
 9.00676 -2.93107    13.52 255 255 255
6.63793 1.29294 17.6126 255 255 255
 8.73333 -3.21663  13.8169 255 255 255
 9.08666 -3.00043  13.5042 255 255 255
 8.71019 -3.13034  13.9095 255 255 255
 8.65125 -1.38129  13.5658 255 255 255
  9.04821 0.0786546   13.2805 255 255 255
  9.01939 0.0869435   13.3597 255 255 255
5.96109 2.45052 18.3376 255 255 255
 8.83282 -2.78897  13.7369 255 255 255
  8.8562 -1.38205  13.6279 255 255 255
8.65972 -2.9046  14.039 255 255 255
 8.71333 -1.35071  13.8675 255 255 255
 7.91479 -2.56475  14.9973 255 255 255
 8.29617 0.691187  13.4007 255 255 255
8.48601 3.17576 13.3496 255 255 255
-15.3395 -1.93851 0.719694 0 255 0
-26.9831 -6.70891 0.241775 0 255 0
 0.079991  -1.43796 -0.839246 0 255 0
-0.254936  -0.34119  0.115149 0 255 0
-0.676619  -1.02414  -1.03867 0 255 0
 0.928001 -0.708927  -1.73865 0 255 0
