ply
format ascii 1.0
element vertex 614
property float x
property float y
property float z
property uchar red
property uchar green
property uchar blue
end_header
 7.84222 -2.32788  18.5644 255 255 255
7.57982 -1.6724 18.8953 255 255 255
7.61632 3.93024 16.6571 255 255 255
7.28588 4.67391 17.1112 255 255 255
 12.754 3.62711 13.6535 255 255 255
  7.6966 -2.40505  18.7396 255 255 255
 7.69443 -2.28723  18.6892 255 255 255
 7.90749 -2.16755  18.5363 255 255 255
5.98104 3.26812 19.2159 255 255 255
 7.5006 4.03272  16.768 255 255 255
7.35036 4.26834 17.1125 255 255 255
7.41313 4.27015 16.8993 255 255 255
7.26845  4.4116 17.1797 255 255 255
7.59788  5.5814  15.913 255 255 255
 7.65291 -1.92315  19.0069 255 255 255
7.69906 -1.9222 18.8974 255 255 255
12.7544 3.63937 13.2885 255 255 255
 12.9781 -6.88575  19.0151 255 255 255
 13.4193 -6.58823  18.6156 255 255 255
4.41242 4.74487 19.7357 255 255 255
5.99107 3.55462 19.1473 255 255 255
 21.8611 -1.44445  2.56546 255 255 255
7.38822 3.98861 17.1071 255 255 255
7.24614 4.65946   17.14 255 255 255
 20.9771 -1.22659  2.34619 255 255 255
21.0126 0.13337 4.03636 255 255 255
7.57974 3.93696 16.7148 255 255 255
 14.2656 -4.95956  17.3671 255 255 255
 14.1915 -4.81206  17.3615 255 255 255
 15.8136 -4.43069    16.55 255 255 255
 14.8077 -4.36733  16.9917 255 255 255
 15.6393 -3.11086  16.2347 255 255 255
  7.7429 -2.55405   18.826 255 255 255
 7.79862 -2.26772  18.7189 255 255 255
 7.80928 -2.21687  18.5991 255 255 255
 15.7157 -6.23972  17.0186 255 255 255
 16.1861 -6.13413  17.0739 255 255 255
16.2034 -5.9972 17.0558 255 255 255
 15.9941 -5.99887  17.0792 255 255 255
 16.0965 -5.85297  16.9808 255 255 255
  16.211 -5.12034  16.6574 255 255 255
  14.415 -5.00117  17.2805 255 255 255
 14.7392 -4.97447  17.1713 255 255 255
 14.2851 -4.88774  17.3457 255 255 255
  14.514 -5.02224  18.0477 255 255 255
 14.3043 -4.81406  17.2944 255 255 255
 14.7601 -4.76345  17.1131 255 255 255
 14.0902 -4.71846  17.4211 255 255 255
 14.7832 -4.54592  17.0487 255 255 255
  14.428 -4.50789  17.2343 255 255 255
  14.836 -4.22917   16.948 255 255 255
 14.8402 -4.13413  16.9689 255 255 255
 15.4528 -2.03023  16.2241 255 255 255
2.51081 4.90609  20.292 255 255 255
 14.5512 -6.20917  17.4695 255 255 255
 15.8737 -6.01528   17.066 255 255 255
 14.5724 -6.01949  17.4151 255 255 255
 15.4663 -5.75437  17.0451 255 255 255
 15.6201 -5.72629  17.0693 255 255 255
 14.6058 -5.79915   17.364 255 255 255
 15.5545 -5.56301  17.0335 255 255 255
 14.6591 -5.61039  17.3453 255 255 255
 14.8757 -5.24965  17.1208 255 255 255
 13.0189 -5.57302  18.3966 255 255 255
 14.6846 -5.18821  17.2119 255 255 255
 14.3492 -5.14887  17.2789 255 255 255
 14.6875 -5.22039  17.8604 255 255 255
14.3658 -5.0889 17.8506 255 255 255
 14.5799 -4.82031  17.2141 255 255 255
 15.1661 -4.42905  16.8023 255 255 255
 15.8583 -4.45447  16.9264 255 255 255
 14.5064 -4.49543  17.1959 255 255 255
 14.9064 -3.91747  16.9312 255 255 255
 15.5735 -3.74618  16.4997 255 255 255
14.9359 -3.7049 16.8756 255 255 255
14.9211 -3.4951 16.7801 255 255 255
 15.5465 -3.35281   16.312 255 255 255
  15.003 -3.26463  16.7658 255 255 255
5.28749 4.94037 19.3563 255 255 255
7.16825 4.68905 17.2621 255 255 255
 15.2027 -7.22918   17.821 255 255 255
 13.8618 -6.59768  18.6719 255 255 255
   15.63 -6.09047   17.218 255 255 255
 15.0362 -6.07442   17.321 255 255 255
 15.6524 -6.04162  17.3419 255 255 255
 14.9765 -5.82833  17.1675 255 255 255
 16.0261 -5.76926   17.006 255 255 255
 15.5553 -5.65738   17.138 255 255 255
  15.038 -5.65918  17.1729 255 255 255
 14.5627 -5.77727  17.5917 255 255 255
 15.0745 -5.45316  17.1184 255 255 255
 14.4631 -5.36571  17.3105 255 255 255
 15.1222 -5.26347  17.0902 255 255 255
 15.1312 -5.01702  16.9975 255 255 255
 14.6194 -4.99683  17.3544 255 255 255
 15.2116 -4.63462  16.9213 255 255 255
 15.7809 -4.49929  16.6497 255 255 255
  14.549 -4.33726  17.1229 255 255 255
 14.7792 -4.14392  17.0976 255 255 255
14.7918 -4.0463 16.9799 255 255 255
 15.2896 -3.79194   16.671 255 255 255
 15.6911 -3.75078  16.5053 255 255 255
  14.785 -3.68599  16.8506 255 255 255
  15.281 -3.57581  16.5759 255 255 255
 14.6727 -3.37822  16.7521 255 255 255
 15.3323 -3.35835  16.5422 255 255 255
 15.4404 -2.93634  16.4798 255 255 255
15.4372 -2.0441 16.1214 255 255 255
 7.70621 0.168212  17.8478 255 255 255
 14.4118 -7.14314  18.0563 255 255 255
 15.1566 -6.74263  17.7057 255 255 255
 14.6466 -6.13352  17.3777 255 255 255
 14.5069 -6.09769   17.514 255 255 255
 14.7293 -5.57111  17.2288 255 255 255
 15.2354 -5.09971   16.981 255 255 255
 15.2906 -4.43985  16.7692 255 255 255
 14.4619 -4.37992  17.2085 255 255 255
 15.6497 -4.23113  16.6481 255 255 255
  15.363 -4.02978   16.681 255 255 255
 15.7933 -3.33242  16.4242 255 255 255
7.36256 4.53036 16.8514 255 255 255
 14.8161 -4.25475  16.8316 255 255 255
 14.0077 -4.58093  17.0506 255 255 255
 14.3212 -6.32636  17.2214 255 255 255
 21.0918 -3.19871  4.87522 255 255 255
  13.656 -5.38959  18.3424 255 255 255
 13.0289 -5.57588  18.4099 255 255 255
 14.1061 -7.32294  18.2352 255 255 255
 21.0025 -0.36953  4.47739 255 255 255
 13.5093 -5.34433   18.247 255 255 255
  21.118 -1.11045  4.41033 255 255 255
 12.9389 -6.56398  18.7368 255 255 255
 13.0201 -6.52453  18.8284 255 255 255
 12.9813 -6.44793  18.8155 255 255 255
 12.9363 -6.35961  18.7785 255 255 255
 12.9173 -5.90506  18.5669 255 255 255
 13.0104 -5.70941  18.6375 255 255 255
 13.0822 -5.30891   18.223 255 255 255
 13.0696 -5.22886  18.2852 255 255 255
 13.7338 0.055923  16.2393 255 255 255
 21.1127 -1.65866  4.70618 255 255 255
 12.1061 -7.06121  19.4035 255 255 255
12.4283 -5.7709 18.9068 255 255 255
 13.5893 -5.90451  18.4932 255 255 255
 15.6384 -6.14366  17.1232 255 255 255
 11.6472 -1.70107  16.7786 255 255 255
 12.935 -1.9464 16.4817 255 255 255
  14.507 -1.71527   15.986 255 255 255
13.7578 0.26484  15.781 255 255 255
   21.259 -0.836436   4.34193 255 255 255
  21.0417 -0.359672     1.983 255 255 255
  11.909 -6.50034  19.0944 255 255 255
 13.1004 -6.93494  18.8972 255 255 255
 12.2996 -5.99932  18.9198 255 255 255
 13.1477 -6.28812  18.6715 255 255 255
13.1268 -5.9194 18.5877 255 255 255
 14.4545 -5.06856  17.7803 255 255 255
 13.9744 -3.46718  17.5966 255 255 255
 14.0791 -3.38194  17.6238 255 255 255
  15.934 -4.58783  16.6735 255 255 255
  14.455 -3.27314   17.499 255 255 255
 12.8497 -1.87311  16.4559 255 255 255
 14.7071 -2.64448  16.4985 255 255 255
 14.4645 -1.65358   16.032 255 255 255
 14.3077 -1.56041  15.9416 255 255 255
 13.7133 0.265338  15.8362 255 255 255
 11.5693 -6.96295  19.2742 255 255 255
 12.0585 -6.90178  19.2688 255 255 255
 12.1557 -6.22927  19.0037 255 255 255
12.2906  -5.366 18.7167 255 255 255
 10.8879 -4.25433  18.0486 255 255 255
10.9532 -4.2002 17.9778 255 255 255
 13.2323 -5.26588  18.3284 255 255 255
 12.5888 -1.54682  16.2886 255 255 255
  14.8643 -0.893806   15.8421 255 255 255
 13.4999 0.152949   16.265 255 255 255
  13.6591 0.0792158    16.253 255 255 255
  21.2213 -0.870872   4.93252 255 255 255
 10.6425 -6.39076  19.4401 255 255 255
 13.1206 -6.04208  18.5382 255 255 255
 13.8993 -3.51543  17.7673 255 255 255
    13.5351 -0.00593429     16.2853 255 255 255
13.6268 0.23958 16.1957 255 255 255
  21.1605 -0.988251   4.44921 255 255 255
 12.9709 -7.44288  18.4572 255 255 255
 14.8921 -1.10813  15.6659 255 255 255
 10.4898 -7.12499  19.6511 255 255 255
 14.1666 -7.20549  18.2195 255 255 255
  14.692 -7.00535  18.2817 255 255 255
 14.5976 -5.01753  17.9954 255 255 255
 14.1809 -3.47334  17.5338 255 255 255
 14.6009 -2.27372  16.3143 255 255 255
 13.7496 -7.25797  18.3062 255 255 255
 14.6383 -3.11417  16.8029 255 255 255
 21.0194 -1.17785  4.95194 255 255 255
  12.69 -1.8444 16.5108 255 255 255
   13.7902 -0.0741317    16.1851 255 255 255
 14.1792 -6.07054  17.9555 255 255 255
  21.0102 -0.450485   2.29604 255 255 255
 7.60773 -4.16684   19.597 255 255 255
 7.78281 -3.00368  18.8315 255 255 255
 7.87389 -2.90924  18.9205 255 255 255
7.80122 -2.8208 18.9631 255 255 255
 7.72013 -2.80274   18.926 255 255 255
 7.81951 -2.58385  18.6385 255 255 255
 7.60855 -2.65627  19.2036 255 255 255
7.70729  -2.527 19.0645 255 255 255
 7.74968 -2.49538  18.7945 255 255 255
 7.32262 -2.53311  19.3044 255 255 255
 7.27796 0.267568  18.9607 255 255 255
7.31772 1.22103 18.4027 255 255 255
 7.2499   1.731 18.4465 255 255 255
7.49668 3.88088 16.9484 255 255 255
7.27957  4.1113 17.4557 255 255 255
 7.3812 4.09437 17.0668 255 255 255
 7.4126 4.08563 17.0266 255 255 255
7.58776 4.02541 16.7343 255 255 255
7.23264 4.17903 17.3767 255 255 255
7.34735 4.47173 16.9698 255 255 255
7.79516 4.30801 16.1918 255 255 255
 7.7933 4.82325  16.009 255 255 255
 7.2412 7.01389 16.1724 255 255 255
7.68962 6.91339 15.1734 255 255 255
7.24719 9.85395 14.5805 255 255 255
 9.79618 -4.60624  17.9545 255 255 255
 7.35223 -3.96859  19.6848 255 255 255
 7.63334 -3.56324  19.3453 255 255 255
 7.62204 -3.42904  19.0077 255 255 255
 7.57723 -3.40191  19.4987 255 255 255
 7.09729 -3.52643  20.3062 255 255 255
 7.87747 -2.97133  18.5018 255 255 255
 7.8856 -2.8577 17.8442 255 255 255
 7.89374 -2.82146  17.9957 255 255 255
 7.92309 -2.89974  18.6465 255 255 255
 7.94584 -2.83717  18.5711 255 255 255
 7.89919 -2.86276  18.8436 255 255 255
 7.64032 -2.89746  19.2701 255 255 255
 7.93634 -2.74149  18.5833 255 255 255
 7.84693 -2.68767  18.6004 255 255 255
 7.59736 -2.77524  19.2274 255 255 255
  7.8074 -2.63512  18.7427 255 255 255
 7.27907 -2.82385  20.0336 255 255 255
 7.85763 -2.53997  18.6298 255 255 255
 7.65794 -2.54012  18.6017 255 255 255
 7.31066 -2.60832  19.8948 255 255 255
 7.69527 -2.45295  18.9467 255 255 255
 7.44373 -2.54219  19.4345 255 255 255
  7.3601 -2.46251  19.3917 255 255 255
 7.79862 -2.26772  18.7189 255 255 255
 7.78064 -2.18734  18.7973 255 255 255
 7.42704 -2.23815  19.1966 255 255 255
 7.18843 -2.23465   19.773 255 255 255
7.56529 -2.0366 19.4571 255 255 255
 7.27886 -1.73348  19.5272 255 255 255
 7.68256 -1.56193  18.7362 255 255 255
 7.28313 -1.33983  19.4744 255 255 255
 9.25132 -1.02296  17.7645 255 255 255
 7.86166 -1.13046  18.0884 255 255 255
  7.34549 -0.958822   19.4096 255 255 255
 7.84058 0.556726  17.5917 255 255 255
 7.80127 0.618697  17.6855 255 255 255
7.72893 1.30683  17.379 255 255 255
7.94374 1.48113 17.1269 255 255 255
7.62759 1.60462 17.6921 255 255 255
8.92343 1.68469 16.9066 255 255 255
9.25862 1.76875 16.6657 255 255 255
10.1879  3.5459 16.2171 255 255 255
 7.6308 3.64214 16.8011 255 255 255
7.67588 3.76114 16.7264 255 255 255
7.42993  3.9586 17.0971 255 255 255
7.35548 4.00267 17.1745 255 255 255
7.21046 4.06986  17.464 255 255 255
7.49343 3.99663 16.8932 255 255 255
7.47561  4.0668 17.0471 255 255 255
 7.3862 4.33882 16.9643 255 255 255
7.24476 4.43618 17.2866 255 255 255
7.23254 4.73003 17.0174 255 255 255
7.29407 4.72397 16.8144 255 255 255
7.05678 4.99155 17.1531 255 255 255
7.66425 4.70267 15.9427 255 255 255
7.28099 7.11359 16.0719 255 255 255
 7.6562 6.92309 15.2077 255 255 255
7.71735 7.78681 14.5957 255 255 255
7.38198 8.83621 14.8461 255 255 255
7.54078 9.06925 14.4205 255 255 255
7.57524  9.1196 14.2329 255 255 255
7.59298 9.07678 14.1712 255 255 255
7.49647 9.53851 14.1913 255 255 255
7.23923 9.88618 14.6642 255 255 255
7.37085 9.78498 14.4511 255 255 255
  7.8961 -8.16444  19.6826 255 255 255
 12.9483 -6.56892  18.7507 255 255 255
 13.1091 -6.35876  18.7439 255 255 255
 9.37067 -7.37669  19.9461 255 255 255
 13.0105 -5.70844   18.637 255 255 255
 13.1397 -5.15444  18.2746 255 255 255
 9.15268 -5.08382  18.7989 255 255 255
7.33079 -5.8622 21.0088 255 255 255
 9.80483 -4.47462  17.9109 255 255 255
 7.43444 -4.70807  20.6148 255 255 255
 7.56951 -3.98368  19.6017 255 255 255
 7.48714 -3.97217    19.83 255 255 255
7.30222 -4.0598 20.4133 255 255 255
 7.47092 -3.79526  19.6311 255 255 255
 7.60457 -3.72626  19.4239 255 255 255
 10.5234 -2.96226  17.5023 255 255 255
 7.48976 -3.60168  19.5449 255 255 255
 7.84079 -3.49542  19.2997 255 255 255
 7.57106 -3.55317  19.5029 255 255 255
 7.87135 -3.10268  18.0731 255 255 255
  7.5578 -3.27537  19.4972 255 255 255
 7.89717 -2.94606  18.7666 255 255 255
7.41421 -2.9913 19.4194 255 255 255
  7.9411 -2.80587  18.7782 255 255 255
 7.71525 -2.87754  19.2833 255 255 255
7.43134 -2.8703 19.8962 255 255 255
 7.71043 -2.75088   19.338 255 255 255
 7.85004 -2.51902  17.8151 255 255 255
 9.67968 -2.12285  16.8753 255 255 255
 7.69872 -2.60106  18.9755 255 255 255
 10.1534 -2.05682  16.9375 255 255 255
 10.2382 -1.96115  17.2008 255 255 255
7.57221 -2.4635 19.0032 255 255 255
 7.65062 -2.27327  19.0916 255 255 255
 7.90749 -2.16755  18.5363 255 255 255
 7.67294 -2.21098  18.9705 255 255 255
 7.19419 -2.27887  20.0181 255 255 255
 7.63302 -2.08554  18.9629 255 255 255
 7.66832 -2.05167   18.827 255 255 255
  7.4867 -1.99415  18.9517 255 255 255
  10.291 -1.44757  17.0238 255 255 255
 7.52386 -1.80877  18.9164 255 255 255
 11.0308 -1.16613  16.7183 255 255 255
 7.64507 -1.50649  18.7812 255 255 255
  11.1545 -0.979029   16.7337 255 255 255
  11.1404 -0.938773   16.8117 255 255 255
 12.1954 -0.78544  16.8077 255 255 255
   7.3077 -0.259213   19.1071 255 255 255
  7.13945 -0.212816   19.2071 255 255 255
   7.88402 -0.0492981    17.7396 255 255 255
 7.31332 0.187224  18.4441 255 255 255
 7.33273 0.387742  19.0841 255 255 255
7.76975 1.19373  17.544 255 255 255
7.72721 1.28577  17.747 255 255 255
 7.5973 1.50634 17.9784 255 255 255
9.32974 1.71802 16.7148 255 255 255
 7.2834 2.06776 18.0348 255 255 255
7.21243 2.95949 17.8766 255 255 255
10.2154 3.54441 16.1653 255 255 255
7.59124  3.9744 16.9294 255 255 255
7.22775 4.27728 17.3451 255 255 255
7.40054 4.22018 17.0668 255 255 255
7.25515 4.27454 17.1882 255 255 255
9.12738 4.09379 16.2872 255 255 255
7.54374 4.18224 16.7236 255 255 255
 7.4564 4.33325 16.6436 255 255 255
7.77127 4.37388 16.0149 255 255 255
7.67891 4.31856  15.259 255 255 255
7.82465 4.66027 16.0552 255 255 255
7.76028 4.81431 16.0587 255 255 255
7.17865 5.57928 16.9342 255 255 255
7.67988 6.67748 15.1958 255 255 255
7.67508 6.87875 15.2567 255 255 255
7.28188 8.12777 15.7092 255 255 255
7.66505 7.86968 14.9169 255 255 255
9.46513 7.77857 13.6014 255 255 255
7.21975  9.1162 15.1428 255 255 255
7.27634 9.33311 14.7444 255 255 255
7.23903 9.40573 14.7845 255 255 255
7.56159 9.14776 14.3795 255 255 255
7.65141 9.27708 14.0918 255 255 255
7.62646 9.35719 14.1365 255 255 255
 7.64963 -9.05493  20.1559 255 255 255
 7.84445 -8.81867  19.9577 255 255 255
 7.86623 -8.53636  20.1723 255 255 255
 9.17123 -7.74547  20.1513 255 255 255
 9.32036 -7.72135  20.1338 255 255 255
 12.6897 -6.54241  19.1085 255 255 255
 8.94347 -5.19691  18.0978 255 255 255
 8.43802 -5.02547  18.4732 255 255 255
 7.41933 -5.26478  20.7099 255 255 255
 7.36181 -4.60538  20.7049 255 255 255
 7.06062 -3.78374  20.5263 255 255 255
 9.46091 -2.31465  17.3757 255 255 255
 9.68072 -2.06452  17.4048 255 255 255
 11.2397 -1.85149  17.0615 255 255 255
 7.72686 -2.35368  18.5714 255 255 255
7.54503 -2.1446 18.9399 255 255 255
 7.88767 -1.43173  17.5479 255 255 255
 10.8724 -1.05842   17.027 255 255 255
 9.21207 -1.22509  17.8558 255 255 255
  12.1223 -0.769383   16.8476 255 255 255
  12.1596 -0.449612   16.7763 255 255 255
  11.1012 -0.386032   16.5384 255 255 255
  7.26092 -0.358218   19.0772 255 255 255
 7.68083 0.373941  17.8505 255 255 255
7.71492 0.44072 17.7355 255 255 255
  7.5871 0.552083  18.2415 255 255 255
 7.64878 0.633972  18.2331 255 255 255
 7.31494 0.771624  18.7214 255 255 255
 7.44727 0.750721  18.1434 255 255 255
7.59107 1.52327 17.7571 255 255 255
7.89254 2.10429 17.4364 255 255 255
7.36576 2.53446 17.9739 255 255 255
5.78229 3.37427 19.2207 255 255 255
 10.005 3.75703 16.1826 255 255 255
7.17656 4.25569 17.4337 255 255 255
7.44628 4.52443 16.7293 255 255 255
7.15049 4.79864 17.1903 255 255 255
9.32517 4.50188 15.9716 255 255 255
 7.7303 6.81201 15.3144 255 255 255
 9.2132 6.38857 14.2311 255 255 255
7.29806 7.19225  15.802 255 255 255
9.19863 6.68727 14.1693 255 255 255
 7.3129 8.11475 15.0807 255 255 255
7.78006 7.89786 14.3158 255 255 255
7.53626 8.38894 14.7493 255 255 255
7.65035 8.56051 14.4201 255 255 255
7.24004 9.13393 15.0237 255 255 255
7.21151 9.85685 14.7169 255 255 255
7.49762 10.7943 14.0878 255 255 255
 7.83341 -9.14803  19.8686 255 255 255
  7.8822 -9.04888  20.0466 255 255 255
  10.646 -6.39124  19.4452 255 255 255
 7.87556 -6.40733  19.5005 255 255 255
 10.1106 -5.17359  18.0701 255 255 255
 7.02351 -6.37725  21.1486 255 255 255
 10.2827 -4.57674  17.9034 255 255 255
 7.55069 -3.81657  19.5558 255 255 255
 10.3371 -2.99799  17.3097 255 255 255
  7.8356 -3.36823  18.3445 255 255 255
 11.1151 -2.34265  17.4674 255 255 255
 8.99009 -2.69301  18.1525 255 255 255
 11.1164 -2.30541  17.2235 255 255 255
 7.68772 -2.95989  19.4751 255 255 255
 9.66987 -2.36462  17.1101 255 255 255
 10.3029 -2.15756  17.0032 255 255 255
  9.6031 -2.23844  17.1697 255 255 255
 7.91319 -2.29986  18.4693 255 255 255
 7.92686 -2.03339  18.5244 255 255 255
 7.78626 -1.45756  17.5459 255 255 255
  11.9975 -0.762554    17.038 255 255 255
   11.253 -0.652049   16.6494 255 255 255
 7.81585 -1.01636  18.0915 255 255 255
 7.29404 -1.07088  19.3889 255 255 255
   9.34821 -0.0647297    16.3131 255 255 255
 10.9636 0.107508  16.2423 255 255 255
  7.5462 0.434755  18.1932 255 255 255
9.87295 1.69493  15.945 255 255 255
9.81896 1.71175  16.018 255 255 255
10.9485 1.77398 15.6839 255 255 255
4.85011 4.68179  19.708 255 255 255
9.86428 3.90165 16.1833 255 255 255
9.48811 3.94955 16.2856 255 255 255
9.98939 3.94172 16.2013 255 255 255
9.39498  3.9787 16.2839 255 255 255
7.59493 4.11654  16.611 255 255 255
9.86241 4.02546 16.1344 255 255 255
10.0003 4.06829 16.1456 255 255 255
9.27909 4.19363  16.148 255 255 255
10.0019 4.22196 16.0975 255 255 255
 7.5281 4.34061 16.6017 255 255 255
 9.9958 4.36792 16.0418 255 255 255
9.26539 4.62846 15.9616 255 255 255
7.73144  4.5215 15.3696 255 255 255
7.73348 6.90977  15.291 255 255 255
  9.219 6.46619 14.3737 255 255 255
7.65971  7.0075 15.2405 255 255 255
7.06588 8.33759 15.7151 255 255 255
 7.4231 8.11619  15.299 255 255 255
7.24712 8.20945 15.3582 255 255 255
7.52549 8.08196 14.8967 255 255 255
7.42861 8.42059 14.7022 255 255 255
7.66158 8.46161 14.7996 255 255 255
7.38067  8.7583 14.9194 255 255 255
 7.3068 8.84262 14.9992 255 255 255
7.81778 8.76974 14.1938 255 255 255
7.25479 9.47778 14.9165 255 255 255
7.55825  9.3923 14.3409 255 255 255
7.61262 9.28648 14.1559 255 255 255
7.01498 9.80919 14.7387 255 255 255
6.90685 10.9262 14.4847 255 255 255
7.61411 9.82707 12.9906 255 255 255
 7.93163 -9.39259  20.0201 255 255 255
 7.80298 -3.65376  19.1993 255 255 255
 9.48234 -2.15115  17.3583 255 255 255
 9.81944 -1.83301  17.0353 255 255 255
 10.3346 -1.35075  17.0101 255 255 255
   9.70786 -0.0602285    16.5932 255 255 255
    7.7059 -0.0981718    18.0888 255 255 255
   7.8271 0.0954484   17.8103 255 255 255
 9.50903 0.307247  17.1863 255 255 255
7.61935 0.32627 17.9954 255 255 255
 7.47461 0.536564  18.3438 255 255 255
9.51258 1.20073 16.8343 255 255 255
7.71316 1.47257 17.3632 255 255 255
7.62927 2.24123 16.3735 255 255 255
9.28985 4.07977 16.1953 255 255 255
9.61516 4.09496 16.2184 255 255 255
7.79468 3.92164 15.4716 255 255 255
9.58969  4.4445 16.0407 255 255 255
9.27399 4.47018 16.0466 255 255 255
7.68999 6.09843 14.7422 255 255 255
7.45757 6.96152 16.2797 255 255 255
7.28509 7.29152 15.7735 255 255 255
9.28135 6.63397 14.2765 255 255 255
 7.5168 8.00127 14.9914 255 255 255
7.58985 8.26483 14.3351 255 255 255
7.23918 8.75739 15.1183 255 255 255
7.16322 9.20749 15.1142 255 255 255
7.72869 -8.6879 20.4502 255 255 255
 7.56501 -2.60713  19.3176 255 255 255
9.48119 -1.9289 17.2419 255 255 255
  7.06379 -0.723601   19.4177 255 255 255
  7.06937 -0.519714    19.347 255 255 255
   9.42028 0.00487241     16.724 255 255 255
   7.93618 -0.0305316    17.7591 255 255 255
7.38442  1.8729 18.1038 255 255 255
7.40087 1.94025 17.6693 255 255 255
6.94076 3.34486 17.7962 255 255 255
9.65586   3.813 16.2993 255 255 255
 7.7047 7.09939  15.126 255 255 255
7.90538 8.91823 15.2644 255 255 255
7.44367 8.76246 14.7553 255 255 255
7.74529 8.84243 14.0843 255 255 255
7.58905 9.69734 14.0948 255 255 255
7.43047 10.7175 14.5385 255 255 255
 7.89429 -10.0403  20.3061 255 255 255
 7.95531 -8.81583  19.9549 255 255 255
 7.84099 -4.94024  19.0402 255 255 255
9.27109 -3.4101 18.2075 255 255 255
7.30914 -3.7937 19.4882 255 255 255
 7.66189 -1.72241  18.7495 255 255 255
 7.75807 -1.50098  18.1578 255 255 255
 7.25572 -1.54557    19.48 255 255 255
  7.33712 -0.796926   19.3363 255 255 255
 7.32053 0.364163  18.3028 255 255 255
7.51645 1.63979 17.6265 255 255 255
7.24979 2.22935 18.1598 255 255 255
6.94873 3.62177 17.7211 255 255 255
6.97873 4.13545 17.6273 255 255 255
9.43597 3.90892  16.458 255 255 255
 6.9339 4.38024 17.4453 255 255 255
8.96371 4.23996 16.1683 255 255 255
6.89689 4.62604 17.2439 255 255 255
7.19383 4.99655 17.1642 255 255 255
 6.9286 5.14208 17.1347 255 255 255
6.80217 6.92861 16.2845 255 255 255
6.80602 7.21158 16.1981 255 255 255
6.82921 7.50743 16.1668 255 255 255
6.81725 7.75818 16.0456 255 255 255
7.72787  7.2567  14.546 255 255 255
7.11366 8.17825 15.7607 255 255 255
6.75984 8.24132 15.7701 255 255 255
7.67532 7.50754 14.3551 255 255 255
7.11053  8.7617 15.5731 255 255 255
6.74562 8.99068 15.4452 255 255 255
7.35541 8.92073 14.6691 255 255 255
7.03125 9.85571 14.9732 255 255 255
 7.4671 9.74994 14.3036 255 255 255
 7.74906 -8.97531  20.3488 255 255 255
 7.17256 -3.96957  20.4806 255 255 255
 11.3167 -1.99065  17.1122 255 255 255
 11.2619 -1.06653  16.7428 255 255 255
 7.97577 -1.31765  17.3941 255 255 255
 7.78772 -1.24733  17.7567 255 255 255
   9.3368 -0.906631   17.6558 255 255 255
10.6951 1.67579 15.9781 255 255 255
 10.277 1.90666 15.8826 255 255 255
7.82315  4.0864 15.9001 255 255 255
7.71581 4.20471 16.3476 255 255 255
7.74925 4.63226 15.5463 255 255 255
9.28834 5.05614 14.7472 255 255 255
6.88995 6.22395 16.6707 255 255 255
7.02344 8.42954 15.5729 255 255 255
7.23529 8.69829 15.3183 255 255 255
6.95923 10.1066  14.805 255 255 255
 7.71649 -3.30465  18.3198 255 255 255
 11.0173 -1.09159  16.8639 255 255 255
 7.14466 -1.11298  19.4302 255 255 255
  10.8027 -0.105098   16.6905 255 255 255
7.35641 1.37137 18.2633 255 255 255
7.62563 1.53101 17.6919 255 255 255
7.30133 6.55467 16.5793 255 255 255
7.59587 8.01759 15.2945 255 255 255
 7.85135 -9.71585  20.2421 255 255 255
 7.61963 -5.20124  20.4546 255 255 255
 8.97955 -4.27953  18.4362 255 255 255
 10.6454 -1.34408  16.8453 255 255 255
  7.39277 -0.112729   18.7368 255 255 255
9.03554 1.56678 16.8335 255 255 255
7.41687 3.76147 17.5492 255 255 255
7.50977 4.05068 16.9026 255 255 255
7.68224 5.11989 16.2013 255 255 255
7.24632 5.33688 16.6782 255 255 255
7.66384 6.34636 15.0577 255 255 255
 7.37708 -3.48507  19.8557 255 255 255
 7.38243 -1.68744  19.1808 255 255 255
  7.57069 -0.476997   17.8657 255 255 255
9.67653 1.54891 16.1702 255 255 255
7.53765   3.379 16.5448 255 255 255
7.77227 5.71566 14.5813 255 255 255
7.31225 9.46684 14.5692 255 255 255
7.61309 2.19356 17.7361 255 255 255
 7.3212 4.47052 17.3725 255 255 255
7.42645 7.11294 15.5041 255 255 255
   6.8465 -0.711045   19.2487 255 255 255
 8.5419 2.34919    15.3 255 255 255
8.55716 5.09296 14.7237 255 255 255
-16.9395  -4.3665  1.34927 0 255 0
  1.2399 -1.27527  1.30161 0 255 0
0 0 0 0 255 0
 0.847594 -0.659968  -1.80842 0 255 0
 0.928001 -0.708927  -1.73865 0 255 0
