ply
format ascii 1.0
element vertex 456
property float x
property float y
property float z
property uchar red
property uchar green
property uchar blue
end_header
 6.5154 -1.6025 19.0261 255 255 255
  6.34004 -0.934789   19.7416 255 255 255
6.56705 4.81847 17.4066 255 255 255
6.37238 5.78617 18.4262 255 255 255
 6.3693 -1.6786 19.2584 255 255 255
 6.36695 -1.55888  19.1942 255 255 255
 6.60706 -1.44428  19.0622 255 255 255
 6.4656 4.95239 17.6011 255 255 255
6.39287 5.30892 18.2884 255 255 255
 6.4251 5.25859 17.9129 255 255 255
6.32945 5.49127 18.4477 255 255 255
6.60201 6.50213 16.6015 255 255 255
 6.46161 -1.19496  19.7349 255 255 255
 13.2582 -7.06113  21.9614 255 255 255
6.40298 4.98655 18.1963 255 255 255
6.32698  5.7718  18.457 255 255 255
6.53799 4.83853 17.5047 255 255 255
 6.50477 -1.54537  19.3232 255 255 255
 13.2453 -5.51809  21.0576 255 255 255
6.26731 5.84232 18.6933 255 255 255
6.38444 5.53927 17.8858 255 255 255
 13.3468 -6.65797  21.7785 255 255 255
   13.29 -6.56591  21.7447 255 255 255
  13.214 -6.45178  21.6573 255 255 255
 13.3184 -5.21984  20.8356 255 255 255
 13.3394 -5.13873  20.9707 255 255 255
 12.1258 -7.19098  22.2555 255 255 255
12.5784 -5.7521 21.7518 255 255 255
  14.212 -6.03254  21.6552 255 255 255
 11.0316 -1.08113  17.9368 255 255 255
   13.45 -7.13671  21.8814 255 255 255
 12.3402 -5.96706  21.6077 255 255 255
 13.5183 -6.39835  21.6124 255 255 255
 13.4855 -5.96855  21.4911 255 255 255
11.2428 -6.9114 21.5755 255 255 255
  11.996 -6.96472  21.9424 255 255 255
 12.121 -6.2055 21.6234 255 255 255
 12.3325 -5.24494  21.3491 255 255 255
 10.0893 -3.74729  19.2602 255 255 255
 10.1593 -3.69414  19.1761 255 255 255
 13.6382 -5.22737  21.2017 255 255 255
 13.4352 -6.08867  21.3552 255 255 255
 12.8634 -7.47247  20.6061 255 255 255
  9.7736 -6.91699   21.512 255 255 255
 6.27855 -3.49072  20.3673 255 255 255
 6.43417 -2.28369  19.3035 255 255 255
 6.57757 -2.20237  19.5653 255 255 255
 6.50667 -2.11171   19.633 255 255 255
 6.39934 -2.08605  19.5142 255 255 255
 6.47817 -1.85907  19.0783 255 255 255
 6.34065 -1.94749  20.0509 255 255 255
 6.44568 -1.81574   19.876 255 255 255
6.43782 -1.7741 19.3704 255 255 255
 6.02024 -1.81087  20.1115 255 255 255
6.20097 1.12617 20.4096 255 255 255
 6.2412 2.10954 19.6505 255 255 255
6.23049 2.68362 19.9061 255 255 255
  6.485 4.83015  17.898 255 255 255
6.36751 5.22242  18.893 255 255 255
6.39924 5.09736 18.1541 255 255 255
6.42602  5.0781 18.0826 255 255 255
  6.565 4.94713  17.579 255 255 255
6.29748  5.2701 18.7297 255 255 255
 6.3882  5.5086 18.0973 255 255 255
6.72828 5.14358 16.7572 255 255 255
6.75174 5.67654 16.5903 255 255 255
6.44027 8.30635 17.4975 255 255 255
6.72768 7.82106 15.7441 255 255 255
6.50365 11.1638 15.5531 255 255 255
-5.39979 -10.3651   18.337 255 255 255
 8.53828 -3.94758  18.3241 255 255 255
 6.00074 -3.27829  20.4419 255 255 255
 6.31161 -2.86808  20.0607 255 255 255
 6.23531 -2.70332  19.4225 255 255 255
6.29273 -2.7168 20.3886 255 255 255
 5.85619 -2.87692  21.7242 255 255 255
 6.47679 -2.23643    18.73 255 255 255
  6.3495 -2.08711  17.5427 255 255 255
 6.39726 -2.06163  17.8356 255 255 255
 6.57407 -2.17868  19.0585 255 255 255
 6.59055 -2.11384  18.9444 255 255 255
 6.59562 -2.15284  19.4432 255 255 255
 6.37055 -2.19702  20.1273 255 255 255
 6.59179 -2.01948  18.9913 255 255 255
 6.49151 -1.96163  18.9871 255 255 255
 6.31961 -2.06822  20.0523 255 255 255
 6.48215 -1.91448  19.2591 255 255 255
 6.09731 -2.14602  21.5161 255 255 255
 6.52749 -1.81726  19.0976 255 255 255
 6.27666 -1.80483  18.9231 255 255 255
 6.12766 -1.91638  21.3138 255 255 255
  6.4107 -1.73506  19.6544 255 255 255
 6.19862 -1.83326  20.4549 255 255 255
 6.09279 -1.74526  20.3385 255 255 255
 6.50477 -1.54537  19.3232 255 255 255
 6.15695 -1.51288  20.0611 255 255 255
 5.98398 -1.51616  21.1021 255 255 255
 6.41295 -1.31847   20.765 255 255 255
   6.0986 -0.991792   20.8306 255 255 255
  6.44255 -0.824203   19.5208 255 255 255
  6.13562 -0.577173   20.8699 255 255 255
  8.25259 -0.308109   18.7194 255 255 255
  6.56054 -0.395388   18.5007 255 255 255
  6.24384 -0.173062   20.9209 255 255 255
 6.6178 1.31527 18.0982 255 255 255
6.59955 1.38921 18.2776 255 255 255
6.52489 2.07867 17.8918 255 255 255
6.74816 2.24071  17.583 255 255 255
 6.5119 2.44205 18.5477 255 255 255
7.95591 2.49812 17.7635 255 255 255
8.32846 2.57595  17.508 255 255 255
9.75582 4.61854 17.7777 255 255 255
6.58052 4.53123 17.5858 255 255 255
6.63802 4.65574 17.5181 255 255 255
6.44846  4.9544 18.1863 255 255 255
6.37905 5.01741 18.3157 255 255 255
6.27432 5.16324  18.849 255 255 255
6.48144 4.94581 17.8259 255 255 255
6.51061 5.07463 18.1588 255 255 255
6.41647 5.35535 18.0532 255 255 255
 6.3251 5.54846 18.6513 255 255 255
6.29213 5.81398 18.2358 255 255 255
6.32259 5.75066 17.8687 255 255 255
6.14357 6.15207 18.5369 255 255 255
6.56058 5.49622 16.3659 255 255 255
6.48056  8.3946 17.3566 255 255 255
6.69463 7.83746 15.7902 255 255 255
6.74293 8.62207 14.9977 255 255 255
6.56436 9.99654 15.6984 255 255 255
6.68921 10.1035 15.0646 255 255 255
6.69354 10.0765  14.763 255 255 255
6.69469 9.99638 14.6503 255 255 255
6.66282 10.5861 14.8248 255 255 255
6.51642 11.2502 15.7102 255 255 255
 6.6131 11.0276 15.3359 255 255 255
 6.30966 -7.33433  19.6284 255 255 255
 13.1845 -6.67008  21.5478 255 255 255
 13.4849 -6.48321   21.724 255 255 255
 8.32196 -7.01173  21.3307 255 255 255
 13.3756 -5.73303  21.5964 255 255 255
 13.4684 -5.07536  21.0348 255 255 255
 7.92536 -4.46249  19.4679 255 255 255
6.09326 -5.3845 22.6481 255 255 255
 8.55132 -3.81541  18.2813 255 255 255
 6.24146 -4.16055  22.2347 255 255 255
 6.24991 -3.30622  20.4098 255 255 255
 6.19983 -3.31353  20.8311 255 255 255
 6.08839 -3.45492   21.918 255 255 255
 6.15159 -3.11259  20.4636 255 255 255
 6.27812 -3.03488   20.151 255 255 255
 9.56585 -2.34953  18.3363 255 255 255
 6.17466 -2.91281  20.3616 255 255 255
6.56667 -2.8151  20.124 255 255 255
 6.27115 -2.86785  20.3448 255 255 255
 6.35953 -2.33377  17.8857 255 255 255
 6.28097 -2.58807  20.4145 255 255 255
 6.56609 -2.23045  19.2644 255 255 255
 6.11317 -2.28534  20.2541 255 255 255
 6.63819 -2.09496   19.358 255 255 255
 6.46972 -2.18304  20.2097 255 255 255
  6.2548 -2.19589  21.3081 255 255 255
 6.49045 -2.05759  20.3624 255 255 255
 6.33431 -1.76058  17.5632 255 255 255
 8.35599 -1.43285  16.9198 255 255 255
 6.40576 -1.88561  19.6653 255 255 255
 8.99372 -1.39005  17.3019 255 255 255
 9.21975 -1.30359  17.8832 255 255 255
 6.26929 -1.74133  19.6847 255 255 255
 6.40828 -1.55614  19.9792 255 255 255
 6.60706 -1.44428  19.0622 255 255 255
  6.4146 -1.48994  19.7688 255 255 255
 6.04261 -1.57099  21.6257 255 255 255
  6.3763 -1.36033  19.7694 255 255 255
 6.39218 -1.32426  19.5293 255 255 255
 6.20129 -1.26108  19.6837 255 255 255
  9.30237 -0.778759   17.7239 255 255 255
6.26058 -1.0729  19.703 255 255 255
  10.2317 -0.505207   17.6283 255 255 255
  6.41255 -0.766091   19.6068 255 255 255
  10.4453 -0.309791   17.7876 255 255 255
  10.4696 -0.264521   17.9497 255 255 255
  12.0463 -0.104763   18.6306 255 255 255
 6.20708 0.564655  20.5227 255 255 255
 6.02031 0.618917  20.6385 255 255 255
 6.62973 0.696058  18.1936 255 255 255
 6.11721 0.989459  19.3286 255 255 255
6.31534 1.27429 20.7594 255 255 255
 6.5997 1.98321 18.1893 255 255 255
 6.6085 2.10955 18.5961 255 255 255
6.53214  2.3795 19.0697 255 255 255
8.42958 2.53383 17.6231 255 255 255
6.22242 2.99008 19.2159 255 255 255
6.21628 3.96826   19.22 255 255 255
9.76985 4.60446 17.6829 255 255 255
6.61338 4.94831 17.9506 255 255 255
6.29858  5.3777 18.7063 255 255 255
6.44307 5.25024 18.2196 255 255 255
6.29617 5.32928 18.4041 255 255 255
8.43545 5.13117 17.5484 255 255 255
6.53332 5.12248 17.6047 255 255 255
6.42533 5.25886 17.4582 255 255 255
6.66429  5.1623 16.4407 255 255 255
6.36357 4.86733   15.03 255 255 255
6.78068  5.5104 16.6399 255 255 255
6.72228 5.67693 16.6642 255 255 255
6.32843 6.81295 18.3959 255 255 255
6.68517 7.54281 15.6973 255 255 255
6.72549 7.81171  15.878 255 255 255
 6.5489 9.52461  17.049 255 255 255
6.77486 8.86786 15.5872 255 255 255
8.66014  8.6093 14.0278 255 255 255
6.48126   10.49 16.2984 255 255 255
6.48686 10.5589 15.6488 255 255 255
6.46406 10.6717  15.741 255 255 255
6.71773 10.1887 15.0284 255 255 255
6.78097 10.2289 14.6079 255 255 255
6.77592 10.3516 14.7075 255 255 255
 6.05281 -8.23922  20.1875 255 255 255
  6.2591 -8.00437  19.9731 255 255 255
 6.35427 -7.82422  20.4816 255 255 255
 8.08214 -7.38859   21.526 255 255 255
 8.27905 -7.39596  21.6009 255 255 255
 12.9796 -6.68305  22.1749 255 255 255
  7.4441 -4.41878  17.9626 255 255 255
6.94612 -4.2536  18.428 255 255 255
 6.19256 -4.73727  22.2479 255 255 255
 6.17887 -4.06103  22.4169 255 255 255
 5.83204 -3.16053  22.0875 255 255 255
8.21433  -1.628 17.6779 255 255 255
 8.54267 -1.38949  17.9313 255 255 255
 10.5557 -1.22851   18.218 255 255 255
6.37329 -1.6226 18.9639 255 255 255
 6.25494 -1.41588  19.6465 255 255 255
  6.43304 -0.704517   17.4108 255 255 255
   10.168 -0.382992   18.1887 255 255 255
  8.20193 -0.516766   18.8121 255 255 255
   11.9602 -0.0854999    18.6734 255 255 255
  12.052 0.268004   18.662 255 255 255
10.3924 0.31163 17.5583 255 255 255
 6.12929 0.454841  20.3903 255 255 255
6.45861  1.1428 18.4401 255 255 255
6.48188 1.20286 18.2609 255 255 255
6.45767 1.37074 19.2255 255 255 255
6.54485  1.4616 19.2799 255 255 255
6.25536 1.65603 20.1331 255 255 255
6.28311 1.56647 19.0149 255 255 255
6.47148  2.3609 18.6254 255 255 255
6.85102   2.972 18.3861 255 255 255
6.37606 3.51793 19.3349 255 255 255
9.52722 4.83259 17.6832 255 255 255
6.25067 5.37113 18.8471 255 255 255
6.46302 5.51061 17.6999 255 255 255
6.24133 5.94493 18.5761 255 255 255
8.66064 5.54636 17.1736 255 255 255
  6.798 7.76737 15.9849 255 255 255
 8.2446 7.11015 14.5009 255 255 255
6.44832 8.37143   16.87 255 255 255
8.26101 7.43558 14.4822 255 255 255
 6.4241 9.17663 15.8375 255 255 255
6.75883 8.63137 14.5521 255 255 255
6.65531  9.4046 15.4107 255 255 255
6.73968 9.48148 14.9248 255 255 255
6.48185 10.4532 16.0916 255 255 255
6.49414 11.2431 15.7976 255 255 255
6.92108 12.3445 15.2695 255 255 255
 6.20268 -8.26788  19.7152 255 255 255
  6.3065 -8.25276   20.114 255 255 255
  10.047 -6.17225  21.4655 255 255 255
6.38519 -5.6623 19.7059 255 255 255
 8.91541 -4.55468  18.5744 255 255 255
 5.69097 -5.87265  22.5645 255 255 255
 9.16207 -3.97194  18.5162 255 255 255
 6.23214 -3.13339  20.3559 255 255 255
 9.23499 -2.35659  17.8421 255 255 255
 6.35213 -2.60528  18.2962 255 255 255
 10.4801 -1.74987  18.8189 255 255 255
 7.80465 -2.01457  18.7911 255 255 255
 10.3736 -1.70066  18.3275 255 255 255
 6.47237 -2.27759  20.5617 255 255 255
  8.3874 -1.67762  17.2795 255 255 255
 9.19981 -1.49944  17.4792 255 255 255
 8.33845 -1.55236  17.3894 255 255 255
 6.58319 -1.57477  18.8921 255 255 255
 6.64268 -1.30993  19.0925 255 255 255
  6.30796 -0.727897   17.3415 255 255 255
   11.8807 -0.0687917    19.0082 255 255 255
  10.6056 0.0338429   17.7781 255 255 255
  6.51662 -0.279154   18.5132 255 255 255
  6.15939 -0.293446   20.7947 255 255 255
8.04571 0.60444 16.3127 255 255 255
  10.161 0.813716  17.0587 255 255 255
6.38069 1.23775 19.0613 255 255 255
8.86485 2.42052 16.4298 255 255 255
8.82227 2.44591 16.5414 255 255 255
10.2139 2.54548 16.5036 255 255 255
9.36267 4.98531 17.6647 255 255 255
8.89338 5.01418 17.6813 255 255 255
9.55152 5.05797 17.7832 255 255 255
8.77351 5.03532 17.6423 255 255 255
6.55792 5.01847  17.383 255 255 255
9.36482 5.11811 17.6104 255 255 255
9.56759 5.19352 17.7196 255 255 255
8.60462 5.22808 17.3832 255 255 255
9.58558 5.36742 17.6882 255 255 255
6.50651 5.26695 17.4207 255 255 255
9.58495 5.52615 17.6285 255 255 255
8.60268   5.686 17.1739 255 255 255
6.47769   5.128 15.3062 255 255 255
6.81018 7.87618 15.9757 255 255 255
8.31542 7.26255 14.7828 255 255 255
6.71986  7.9552 15.8811 255 255 255
6.30807 9.74343 17.0393 255 255 255
6.61575 9.32037 16.2991 255 255 255
6.42498 9.42521 16.3678 255 255 255
 6.6342 9.09438 15.5744 255 255 255
6.51852 9.39555 15.2961 255 255 255
6.83417 9.55504 15.5803 255 255 255
6.56743 9.93331 15.8023 255 255 255
6.50994 10.0691 15.9548 255 255 255
6.91942 9.67003 14.6603 255 255 255
 6.5289 10.8529 16.0272 255 255 255
  6.748 10.4905  15.055 255 255 255
6.75289 10.2686 14.7134 255 255 255
6.24448 11.1278 15.7302 255 255 255
6.25554 12.5213 15.7194 255 255 255
6.61808 10.4174 13.0483 255 255 255
  6.3342 -8.56639  20.0093 255 255 255
 6.47897 -2.95877  19.8458 255 255 255
 8.25902 -1.46596  17.7063 255 255 255
 8.62926 -1.15492  17.3741 255 255 255
  9.37113 -0.680189   17.7515 255 255 255
 8.59544 0.636599  17.0116 255 255 255
 6.48943 0.668445   18.757 255 255 255
 6.59479 0.851226  18.3476 255 255 255
8.60134 1.07086 18.1685 255 255 255
6.41121 1.10468 18.6715 255 255 255
6.33843 1.36048 19.3575 255 255 255
8.63024 1.99872 17.7857 255 255 255
6.52292 2.25292 17.9111 255 255 255
6.28741 2.89569 16.2915 255 255 255
8.61471 5.10914 17.4399 255 255 255
9.06874 5.18676 17.6678 255 255 255
6.49525 4.50934 15.3218 255 255 255
9.03656 5.54779 17.4341 255 255 255
8.61413  5.5254 17.2853 255 255 255
 6.4971 6.68164 14.6957 255 255 255
6.74161 8.35003 17.8158 255 255 255
6.43931 8.47906  16.845 255 255 255
8.39272 7.43519 14.6898 255 255 255
6.63469 9.03801  15.716 255 255 255
6.59637 9.05117  14.644 255 255 255
6.44276 10.0073  16.121 255 255 255
6.41975 10.5824 16.2598 255 255 255
 6.23787 -8.02598  20.9189 255 255 255
 6.31775 -1.90092  20.2729 255 255 255
 8.25032 -1.24163  17.5513 255 255 255
  5.91581 0.0804938    20.846 255 255 255
 5.92778 0.295531    20.77 255 255 255
 8.27749 0.707381  17.1226 255 255 255
  6.7013 0.718271  18.2671 255 255 255
6.34241 2.79408 19.3452 255 255 255
6.26832 2.78905 18.5009 255 255 255
5.90654 4.36015 19.0539 255 255 255
9.10062 4.88033 17.7464 255 255 255
6.75832 8.02424 15.7182 255 255 255
7.36681 10.5065 16.7857 255 255 255
6.60369 9.86369 15.5224 255 255 255
6.81727 9.68947 14.4704 255 255 255
 6.7812 10.7686 14.7516 255 255 255
6.91232 12.4648 15.9925 255 255 255
  6.3056 -9.24802  20.3941 255 255 255
 6.39119 -8.02776  20.0351 255 255 255
6.36752 -4.1862 19.1841 255 255 255
 8.09451 -2.75482  18.8532 255 255 255
 5.92245 -3.07952  20.0693 255 255 255
  6.40218 -0.987931   19.4806 255 255 255
  6.40722 -0.766498   18.4514 255 255 255
6.07918 -0.7938 20.7847 255 255 255
    6.23406 -0.00217162     20.8186 255 255 255
6.11558 1.16455  19.115 255 255 255
6.36387 2.46183 18.3722 255 255 255
6.22856 3.19436 19.5135 255 255 255
5.93981 4.66784 19.0322 255 255 255
6.03132 5.26024 19.0934 255 255 255
8.88097 5.01142 17.9897 255 255 255
5.96552 5.48619 18.7913 255 255 255
8.20088 5.23921 17.2762 255 255 255
5.91003 5.70998 18.4709 255 255 255
6.31554  6.1815 18.6205 255 255 255
5.99514 6.30101 18.4806 255 255 255
 5.9072  8.1536 17.4807 255 255 255
5.93064 8.46964   17.42 255 255 255
5.99688 8.84325 17.4969 255 255 255
5.99025 9.10229 17.3509 255 255 255
6.65829 7.95549 14.7292 255 255 255
   6.36 9.57991  17.102 255 255 255
 5.9262 9.56979 16.9739 255 255 255
6.58378 8.15541 14.4524 255 255 255
6.39489 10.2378 16.9493 255 255 255
5.94358 10.3685 16.6286 255 255 255
6.49884   9.997 15.3853 255 255 255
6.32752 11.3414 16.2002 255 255 255
6.69268 10.9265 15.0996 255 255 255
 6.21875 -8.26011   20.653 255 255 255
-5.94426  -6.7589  17.1805 255 255 255
 5.94714 -3.35702  22.0037 255 255 255
 10.6637 -1.37858   18.323 255 255 255
  10.5836 -0.403598   17.8382 255 255 255
  6.51462 -0.596155   17.2104 255 255 255
  6.37987 -0.518484   17.7928 255 255 255
  8.34615 -0.190284   18.5918 255 255 255
9.97819 2.46944 16.9121 255 255 255
9.41123 2.67122 16.5812 255 255 255
6.65659 4.81134 16.1522 255 255 255
6.65437 5.05947 16.9732 255 255 255
6.55796 5.30796 15.6654 255 255 255
8.27304 5.76919 15.0245 255 255 255
6.00023 7.45466 17.9957 255 255 255
6.23481 9.77467 16.7776 255 255 255
6.47804 10.0408 16.4795 255 255 255
6.23688 11.5545 15.9461 255 255 255
 6.21107 -2.53318  18.2009 255 255 255
  10.2927 -0.423476   17.9354 255 255 255
  5.97476 -0.335575   20.7662 255 255 255
 10.0985 0.619349  17.7871 255 255 255
 6.2764 2.25721 19.4459 255 255 255
6.49928 2.36102 18.5173 255 255 255
6.55671 7.93445 18.1835 255 255 255
6.81492  9.2346 16.3285 255 255 255
 6.26383 -8.91977  20.3203 255 255 255
 6.39521 -4.65547  21.8562 255 255 255
 7.68588 -3.60368  18.8739 255 255 255
  9.72622 -0.681284   17.6069 255 255 255
 6.24777 0.696324  19.8633 255 255 255
8.06368 2.36716 17.6508 255 255 255
6.51552   4.854 19.0166 255 255 255
6.51028  5.0125 17.8694 255 255 255
6.71264 6.07612 17.0234 255 255 255
6.31786 6.43019 17.8185 255 255 255
6.57958  7.0863  15.322 255 255 255
 -5.4738 -6.27657  16.8755 255 255 255
 6.11503 -2.81622  20.9719 255 255 255
  6.15603 -0.945444   20.1908 255 255 255
 6.22774 0.260181  18.1185 255 255 255
8.66772 2.28653 16.7106 255 255 255
6.36646 4.15439 16.9504 255 255 255
6.50106 6.20647 14.3356 255 255 255
6.51373 10.6509 15.3998 255 255 255
6.58626 3.10518 18.8606 255 255 255
6.45437 5.63754 18.9034 255 255 255
6.52013  8.1595 16.3228 255 255 255
 5.60827 0.084467  20.3425 255 255 255
7.11951 2.89366 14.8806 255 255 255
7.37219 5.68489 14.6932 255 255 255
-0 -0 -0 0 255 0
 0.511117 -0.377532 -0.772159 0 255 0
